-15.757,0.29307,-46.008,128,125,105
-15.756,-0.68037,-46.066,46,47,40
-15.756,0.18737,-46.049,31,28,19
-15.756,-0.98868,-46.173,42,48,54
-15.755,-0.73245,-46.035,30,32,26
-15.755,-1.1236,-46.218,24,32,39
-15.755,-0.75809,-46.009,58,61,55
-15.754,-1.0479,-46.205,30,37,44
-15.754,-0.7837,-46.01,46,46,38
-15.754,-1.2092,-46.153,58,59,54
-15.754,-0.55383,-46.11,76,94,116
-15.753,-0.31261,-46.108,48,53,63
-15.753,-1.0851,-46.209,24,37,48
-15.753,-0.29653,-46.103,81,85,92
-15.753,-0.27367,-46.064,103,102,105
-15.753,-1.2519,-46.126,62,64,60
-15.753,-0.71892,-46.044,20,21,16
-15.752,-0.80776,-46.032,48,48,44
-15.752,-0.099515,-46.035,44,45,40
-15.752,-0.45269,-46.113,59,74,97
-15.751,-1.0158,-46.197,35,44,52
-15.751,0.23337,-46.047,30,26,17
-15.751,-1.1532,-46.185,32,29,16
-15.751,0.25591,-46.042,24,32,25
-15.751,-0.58371,-46.111,59,73,92
-15.751,-0.76895,-46.002,50,51,44
-15.75,0.1141,-46.063,82,57,25
-15.75,0.15086,-46.054,60,45,25
-15.75,0.28075,-46.022,63,70,55
-15.75,-1.2335,-46.14,58,59,52
-15.75,0.055961,-46.077,72,52,26
-15.748,-1.1407,-46.207,15,15,11
-15.748,0.094242,-46.065,82,57,25
-15.748,0.24582,-46.045,18,22,17
-15.748,-0.48758,-46.111,64,81,103
-15.747,0.019674,-46.073,72,52,25
-15.746,-1.1802,-46.158,54,60,50
-15.746,-1.2805,-46.115,38,42,40
-15.746,-0.061023,-46.071,46,35,19
-15.745,-0.40991,-46.107,53,67,80
-15.745,-0.19796,-45.993,80,81,72
-15.745,-0.64942,-46.065,67,71,65
-15.743,0.20398,-46.041,42,33,21
-15.743,0.004699,-46.069,72,52,25
-15.741,-0.69216,-46.055,38,40,35
-15.741,-0.19008,-46.001,67,67,59
-15.741,0.16657,-46.043,32,26,18
-15.741,0.24883,-46.039,23,26,21
-15.741,-0.17852,-46.019,60,60,52
-15.74,-0.63111,-46.086,45,45,36
-15.74,-1.2015,-46.149,69,70,64
-15.739,0.31056,-45.967,128,123,104
-15.738,-0.74355,-46.005,54,58,52
-15.738,-1.1284,-46.216,20,24,29
-15.738,-0.24339,-46.02,135,130,111
-15.738,-0.11325,-46.022,44,45,39
-15.737,-1.27,-46.106,47,48,44
-15.737,-1.1605,-46.167,51,46,30
-15.737,-0.13056,-46.017,53,56,50
-15.736,-1.2147,-46.144,62,62,56
-15.736,0.027285,-46.063,82,56,24
-15.736,-0.7289,-46.017,66,68,64
-15.736,-0.26476,-46.045,143,138,130
-15.736,-0.54254,-46.106,51,65,87
-15.735,-0.76451,-45.987,48,49,43
-15.735,0.25262,-46.03,30,32,24
-15.735,0.28719,-45.995,157,150,129
-15.735,0.19014,-46.032,69,58,39
-15.734,0.23215,-46.032,50,43,27
-15.734,0.11783,-46.052,78,56,26
-15.734,-1.1474,-46.19,24,24,14
-15.734,-1.2945,-46.113,53,61,63
-15.733,-1.1028,-46.204,24,36,48
-15.733,-0.36845,-46.107,34,41,48
-15.733,-0.017243,-46.064,76,53,24
-15.733,-0.61604,-46.096,50,50,44
-15.733,0.20847,-46.027,85,72,50
-15.733,-1.2616,-46.103,63,64,60
-15.732,0.27006,-46.011,145,136,112
-15.731,0.16639,-46.03,80,64,43
-15.731,-1.2304,-46.132,56,57,48
-15.731,-1.3235,-46.133,47,54,58
-15.73,-1.1401,-46.204,12,12,10
-15.73,0.096532,-46.051,126,90,40
-15.73,-0.34504,-46.108,32,36,44
-15.73,-0.18085,-46.007,37,36,29
-15.729,-0.19739,-45.983,76,77,71
-15.729,0.13093,-46.044,75,53,27
-15.729,-0.85656,-46.051,49,50,47
-15.729,-0.79623,-46.007,46,46,39
-15.729,-0.32423,-46.105,41,46,56
-15.729,-0.51854,-46.109,54,69,94
-15.728,-0.22801,-45.995,114,112,95
-15.728,0.050414,-46.053,90,60,23
-15.727,-1.1196,-46.207,24,31,38
-15.727,-1.1533,-46.173,48,44,27
-15.727,0.22152,-46.015,130,117,89
-15.726,0.23203,-46.016,141,127,102
-15.726,-0.21129,-45.978,71,73,65
-15.726,0.11425,-46.041,133,98,50
-15.726,0.026139,-46.047,104,69,27
-15.726,-0.071261,-46.049,28,25,17
-15.725,-0.64558,-46.05,71,75,72
-15.725,-0.68807,-46.041,48,48,44
-15.725,0.081818,-46.041,146,113,60
-15.724,-1.431,-46.226,62,68,73
-15.724,-0.28751,-46.068,101,99,101
-15.724,-1.2567,-46.098,64,66,64
-15.724,-0.19006,-45.986,68,68,60
-15.723,-1.2458,-46.106,61,65,60
-15.723,-0.73581,-46.001,38,42,36
-15.723,0.2446,-46.004,136,126,102
-15.723,0.1531,-46.012,123,102,68
-15.723,0.12785,-46.026,162,135,89
-15.722,-0.25154,-46.021,148,140,119
-15.722,-1.2772,-46.094,45,49,48
-15.722,0.00356,-46.046,80,54,24
-15.722,-1.1751,-46.144,69,74,65
-15.721,-0.13703,-46.005,56,58,51
-15.721,0.29284,-45.978,148,141,121
-15.721,-1.1303,-46.2,15,17,20
-15.721,0.094542,-46.027,161,133,89
-15.721,-0.70978,-46.022,49,53,48
-15.72,0.17445,-46.005,143,130,103
-15.72,-0.74901,-45.986,61,63,56
-15.72,-0.77781,-45.983,46,46,39
-15.72,-0.19906,-45.975,75,77,71
-15.719,0.032482,-46.028,172,145,102
-15.719,-1.298,-46.103,43,50,52
-15.718,-1.1129,-46.195,25,33,43
-15.718,-0.66912,-46.04,64,66,63
-15.718,-1.2119,-46.137,72,73,69
-15.718,0.11046,-46.013,149,135,104
-15.718,-0.055925,-46.058,48,41,27
-15.717,-1.151,-46.166,46,42,24
-15.717,-0.26403,-46.032,134,128,119
-15.717,-0.089499,-46.012,49,52,48
-15.716,-0.024065,-46.041,116,106,87
-15.716,0.13548,-46.002,154,140,111
-15.716,0.20001,-45.992,128,116,87
-15.716,-0.071627,-46.027,45,48,43
-15.715,0.15028,-45.999,143,130,103
-15.715,-1.0949,-46.194,34,44,54
-15.715,-0.77372,-45.975,48,48,40
-15.715,-1.1542,-46.159,53,48,30
-15.715,0.23202,-45.99,104,99,85
-15.715,-0.41099,-46.091,34,41,48
-15.714,-0.50771,-46.111,56,71,95
-15.714,0.018771,-46.012,124,112,87
-15.714,-0.19961,-45.968,68,70,64
-15.713,-0.21447,-45.972,78,80,72
-15.713,0.25969,-45.987,158,147,124
-15.713,-0.68024,-46.033,57,58,52
-15.713,0.066003,-46.005,142,129,103
-15.713,-0.31298,-46.089,41,46,56
-15.712,0.1044,-45.997,147,134,105
-15.711,0.28294,-45.978,150,143,126
-15.71,-1.1409,-46.181,30,30,25
-15.71,-1.1211,-46.188,23,26,31
-15.71,-0.006766,-46.004,135,125,103
-15.71,-0.28344,-46.049,119,114,105
-15.71,-0.35545,-46.019,106,100,87
-15.71,-0.68709,-46.028,42,43,36
-15.71,0.13082,-45.99,139,130,105
-15.709,-1.1498,-46.164,38,34,20
-15.709,-0.21008,-45.962,70,72,64
-15.709,-0.33182,-46.018,103,97,85
-15.708,-0.030237,-46,122,112,88
-15.708,-0.25491,-46.012,147,138,119
-15.707,-0.7291,-46.001,20,21,17
-15.707,-1.2572,-46.086,62,67,62
-15.707,-0.26439,-46.017,139,129,112
-15.707,-1.0476,-46.18,36,43,51
-15.707,-0.3047,-46.066,72,74,77
-15.706,-0.57472,-46.097,48,62,81
-15.706,0.042063,-45.991,149,139,118
-15.706,-0.29353,-46.06,97,97,97
-15.705,-0.40114,-46.065,54,60,63
-15.705,0.16196,-45.989,118,109,88
-15.705,-0.51653,-46.109,54,70,95
-15.705,-0.29207,-46.039,114,106,93
-15.705,-0.094632,-45.998,48,51,48
-15.705,-0.24068,-45.994,139,134,117
-15.704,-0.14938,-45.984,31,31,24
-15.704,-1.2403,-46.1,46,48,40
-15.704,-0.65276,-46.031,74,80,76
-15.703,-0.40099,-46.032,98,95,80
-15.703,-0.37661,-46.07,45,49,51
-15.703,-0.18579,-45.965,70,71,64
-15.703,-0.30067,-46.049,89,86,76
-15.703,-0.29241,-46.054,95,94,93
-15.703,-0.67574,-46.028,60,61,55
-15.703,-0.27905,-46.016,149,140,119
-15.703,-0.481,-46.113,56,71,95
-15.703,-0.078739,-45.996,91,87,76
-15.703,0.29512,-45.959,133,127,110
-15.703,-0.79017,-45.982,41,41,35
-15.702,-0.25922,-46.008,139,130,113
-15.702,-0.62409,-46.053,45,46,36
-15.702,-0.33069,-46.067,50,53,56
-15.701,-0.51155,-46.02,75,73,64
-15.701,-0.61167,-46.082,37,48,58
-15.701,-1.1501,-46.154,59,51,32
-15.701,-0.50581,-46.11,53,70,95
-15.701,0.10255,-45.985,119,115,95
-15.701,-1.2929,-46.086,42,48,50
-15.7,-0.45023,-46.023,129,122,103
-15.7,-0.81368,-46.008,40,42,36
-15.7,-0.47986,-46.021,117,110,94
-15.7,-0.3363,-46.099,38,43,44
-15.7,-0.20763,-45.956,68,70,64
-15.7,-0.26574,-46.006,114,104,89
-15.699,-0.006508,-45.988,145,134,111
-15.699,-0.48364,-46.034,147,140,120
-15.699,-0.43767,-46.015,87,83,72
-15.699,0.065659,-45.985,139,127,103
-15.699,-0.54143,-46.098,56,70,94
-15.699,-0.57365,-46.02,66,68,64
-15.699,-0.041984,-45.987,61,62,59
-15.698,-0.44445,-46.039,144,140,126
-15.698,0.019191,-45.985,135,126,104
-15.698,-0.48886,-46.112,56,72,96
-15.698,-1.1232,-46.184,64,70,80
-15.697,-0.42333,-46.056,125,128,127
-15.697,-1.1586,-46.132,45,40,26
-15.697,-0.46827,-46.008,86,82,71
-15.696,-1.3057,-46.092,37,47,50
-15.696,-1.1438,-46.17,24,24,19
-15.696,0.15556,-45.981,81,78,69
-15.696,-0.52159,-46.103,52,67,92
-15.695,-0.61282,-46.046,46,46,42
-15.695,-1.1355,-46.179,48,51,55
-15.695,-0.39053,-46.006,89,87,77
-15.695,-0.74999,-45.969,54,56,50
-15.695,0.14333,-45.98,81,78,70
-15.695,-0.25346,-45.997,134,127,110
-15.695,-0.59221,-46.074,38,50,64
-15.695,-0.45652,-46.106,51,66,87
-15.694,-0.63323,-46.024,66,71,65
-15.694,-0.47461,-46.005,106,102,87
-15.694,-1.2177,-46.12,56,56,48
-15.694,-0.50409,-46.051,120,129,138
-15.694,-0.1047,-45.989,42,45,40
-15.693,-0.83094,-46.017,52,54,50
-15.693,-0.70844,-46.012,33,34,31
-15.693,-0.46367,-46.054,123,127,129
-15.693,0.21981,-45.975,64,64,59
-15.692,-0.41723,-46.003,96,92,80
-15.692,-1.3273,-46.109,54,64,64
-15.692,-0.72833,-45.994,28,29,24
-15.691,-0.40664,-46.002,102,98,86
-15.691,0.1745,-45.977,82,82,72
-15.691,-0.6075,-46.011,78,75,65
-15.691,-1.1852,-46.123,78,83,77
-15.691,-1.2921,-46.08,44,48,48
-15.691,-0.21896,-45.96,102,101,94
-15.69,-0.33702,-45.995,117,108,92
-15.69,0.27144,-45.967,143,136,120
-15.69,-0.49613,-46.108,54,71,95
-15.69,-0.50333,-46.004,83,81,70
-15.69,-0.48248,-46.067,108,120,129
-15.689,-0.30454,-45.991,78,78,72
-15.688,-0.5511,-46.078,91,103,112
-15.688,-0.46123,-46.077,90,99,111
-15.688,0.24949,-45.97,85,83,72
-15.688,0.10658,-45.976,64,65,59
-15.688,-0.71955,-46.004,24,24,21
-15.688,-0.24147,-45.983,113,110,100
-15.687,-0.065226,-45.98,62,62,55
-15.687,-0.44484,-45.997,99,95,80
-15.687,-0.50833,-46.098,52,65,86
-15.687,-0.28688,-45.992,118,113,95
-15.686,-0.71295,-46.008,32,32,30
-15.686,-1.2358,-46.095,46,47,39
-15.686,-0.52566,-46.074,104,116,127
-15.686,-0.46438,-46.099,53,69,94
-15.686,-0.40069,-45.995,113,107,95
-15.686,0.12714,-45.974,62,63,58
-15.686,-0.1728,-45.964,34,35,29
-15.685,-0.67741,-46.015,65,68,64
-15.685,-0.49706,-46.086,73,87,103
-15.685,-1.3084,-46.086,32,41,43
-15.685,0.18631,-45.973,65,67,63
-15.685,-0.20271,-45.944,51,52,44
-15.685,0.16139,-45.974,70,70,64
-15.684,-0.3835,-45.993,99,95,84
-15.684,0.054954,-45.975,65,67,64
-15.684,-0.51601,-46.091,68,78,89
-15.684,0.28354,-45.955,162,153,132
-15.683,-0.51866,-45.998,67,71,69
-15.683,-0.99084,-46.118,48,49,48
-15.681,-0.84746,-46.008,78,78,71
-15.68,-0.11928,-45.977,47,48,44
-15.679,-0.45922,-45.991,83,81,71
-15.679,-0.2584,-45.985,123,117,100
-15.678,-0.095331,-45.975,51,53,50
-15.677,-1.1996,-46.112,77,81,76
-15.677,-0.70377,-46.002,36,37,32
-15.677,-0.88697,-45.972,81,78,71
-15.677,-0.79957,-45.966,47,48,40
-15.677,-0.13763,-45.971,49,50,44
-15.677,-0.1544,-45.968,47,48,40
-15.676,-0.90873,-46.019,88,85,76
-15.676,0.14618,-45.969,68,69,64
-15.676,-0.41595,-45.988,65,67,62
-15.676,-0.40276,-45.988,76,76,69
-15.676,0.092453,-45.971,63,64,58
-15.675,-0.90828,-45.98,89,88,78
-15.675,-1.1726,-46.116,81,87,80
-15.675,-0.28038,-45.983,91,89,78
-15.675,0.26822,-45.958,146,138,119
-15.675,0.18141,-45.967,63,64,60
-15.675,-0.77088,-45.949,34,35,29
-15.674,-0.56703,-45.992,74,78,72
-15.674,-1.1477,-46.158,17,17,11
-15.674,0.26167,-45.96,118,113,96
-15.674,-0.92336,-45.972,97,95,85
-15.674,-0.73369,-45.967,49,52,47
-15.673,-1.312,-46.081,32,41,44
-15.673,-0.8627,-45.996,83,81,72
-15.673,-0.81495,-45.984,45,46,40
-15.673,0.17935,-45.966,59,61,56
-15.673,0.1931,-45.965,63,64,60
-15.672,-0.049878,-45.971,58,60,55
-15.672,0.18763,-45.965,60,62,59
-15.672,-0.23973,-45.973,117,117,109
-15.672,0.24119,-45.962,103,100,89
-15.671,-0.17579,-45.958,32,32,25
-15.671,-0.93549,-45.996,81,81,73
-15.671,-0.33812,-45.985,69,70,64
-15.67,-0.07797,-45.97,57,60,56
-15.67,-0.80369,-45.96,56,58,48
-15.67,-0.42797,-45.985,68,71,68
-15.669,-1.2671,-46.055,44,50,52
-15.669,-0.91705,-45.964,100,97,86
-15.669,0.29435,-45.933,141,135,117
-15.668,-0.18762,-45.944,61,61,52
-15.668,0.18796,-45.963,65,67,63
-15.668,-0.80693,-45.961,59,60,51
-15.668,-0.94269,-45.977,85,83,72
-15.668,-1.1249,-46.182,25,30,35
-15.668,-0.49902,-45.988,78,76,64
-15.668,0.072467,-45.966,65,67,63
-15.667,-0.23124,-45.96,113,114,103
-15.667,-1.1499,-46.127,47,42,27
-15.667,0.22347,-45.961,84,83,76
-15.667,-0.10913,-45.968,49,51,47
-15.667,-0.25122,-45.978,101,99,93
-15.667,-0.16344,-45.962,36,36,30
-15.666,-1.3282,-46.091,53,62,64
-15.666,-1.1866,-46.106,77,83,78
-15.665,-0.40189,-45.984,65,68,64
-15.665,-0.80518,-45.955,64,64,52
-15.665,-0.36682,-45.983,87,88,80
-15.664,-0.95001,-45.962,81,77,68
-15.664,-1.17,-46.11,44,46,36
-15.664,-0.81922,-45.963,73,72,60
-15.664,-0.90612,-45.956,106,102,87
-15.664,-0.21739,-45.939,75,75,68
-15.663,-0.65441,-45.997,63,66,63
-15.663,-1.2188,-46.099,62,64,58
-15.663,0.17539,-45.96,76,76,70
-15.662,-0.9555,-46.015,80,78,72
-15.662,-0.84372,-45.963,85,84,72
-15.662,-1.3088,-46.072,37,47,51
-15.662,-0.961,-45.995,65,65,60
-15.661,-0.30802,-45.98,80,82,77
-15.661,-0.13949,-45.96,60,61,55
-15.661,0.20506,-45.958,86,85,76
-15.66,-0.62471,-45.992,68,71,65
-15.66,-0.79466,-45.944,81,80,64
-15.659,-0.33085,-45.981,71,73,70
-15.659,-0.34711,-45.981,71,74,70
-15.658,0.091786,-45.961,73,74,64
-15.658,0.12481,-45.959,63,64,59
-15.658,0.005598,-45.963,60,62,59
-15.658,-0.06124,-45.962,77,77,69
-15.658,0.18941,-45.956,92,90,79
-15.658,-0.53185,-45.983,86,86,80
-15.657,-0.19545,-45.918,77,78,72
-15.657,-0.029497,-45.963,63,63,58
-15.656,-0.48627,-45.984,73,74,64
-15.656,-1.1783,-46.098,87,93,88
-15.656,0.047395,-45.96,85,85,77
-15.656,-0.16434,-45.957,40,40,32
-15.655,0.24223,-45.953,131,126,108
-15.655,0.26469,-45.946,157,149,128
-15.655,-0.69745,-45.985,56,58,52
-15.654,-1.1842,-46.093,87,91,88
-15.654,-0.89766,-45.949,105,100,86
-15.654,-0.26711,-45.977,87,88,79
-15.654,-0.96934,-45.969,74,72,60
-15.653,-0.93217,-45.951,109,105,92
-15.653,-0.82776,-45.952,91,86,68
-15.652,-0.98687,-46.047,90,87,79
-15.651,0.088293,-45.957,91,89,73
-15.651,-0.79177,-45.934,77,75,63
-15.651,-0.87489,-45.947,105,99,85
-15.651,-0.98091,-46.012,64,64,58
-15.651,0.07967,-45.957,97,96,80
-15.65,-1.1982,-46.089,76,80,78
-15.65,-0.4013,-45.98,75,77,72
-15.649,-0.42808,-45.979,73,74,70
-15.649,0.19854,-45.951,118,113,95
-15.649,0.063365,-45.955,90,90,80
-15.649,-0.17487,-45.949,58,59,48
-15.648,0.30406,-45.91,108,105,93
-15.648,-1.0838,-46.171,20,22,23
-15.648,-1.1527,-46.171,8,10,9
-15.648,0.093261,-45.954,107,103,85
-15.647,0.19281,-45.95,120,114,95
-15.647,-0.65178,-45.986,71,76,72
-15.647,0.27235,-45.936,154,145,127
-15.646,-0.28497,-45.974,97,96,86
-15.646,-0.083482,-45.956,77,81,73
-15.646,-1.1519,-46.105,40,37,23
-15.646,-0.27024,-45.974,96,94,81
-15.646,-1.1867,-46.084,86,91,88
-15.646,-0.34809,-45.975,92,91,80
-15.646,0.2315,-45.95,131,125,104
-15.645,-0.96622,-45.953,66,64,51
-15.645,-1.0541,-46.149,22,24,23
-15.645,-0.63196,-45.985,69,75,72
-15.644,-1.2314,-46.069,48,49,43
-15.644,-0.33437,-45.974,119,113,96
-15.644,0.10691,-45.951,127,119,94
-15.643,-0.27619,-45.973,96,94,80
-15.643,-1.0468,-46.126,53,56,52
-15.643,0.041716,-45.952,118,114,97
-15.642,-1.216,-46.08,60,61,55
-15.642,-0.60751,-45.982,74,80,73
-15.642,-0.24985,-45.965,124,122,111
-15.642,-0.2977,-45.973,102,100,89
-15.642,-0.27367,-45.973,99,95,81
-15.642,-1.0289,-46.086,110,106,94
-15.642,0.1369,-45.95,116,110,95
-15.642,-0.36803,-45.974,102,100,87
-15.641,-0.095563,-45.954,72,75,71
-15.641,-1.1558,-46.158,8,8,6
-15.641,-0.82056,-45.937,106,101,81
-15.641,-0.42946,-45.977,77,77,72
-15.64,-1.1634,-46.084,73,75,68
-15.64,-0.66965,-45.979,68,71,68
-15.64,-0.42212,-45.975,84,84,76
-15.639,-0.4522,-45.977,102,99,87
-15.639,-0.42921,-45.975,78,78,72
-15.639,-1.1009,-46.079,124,118,105
-15.639,-0.83353,-45.939,104,99,80
-15.639,-1.0818,-46.076,110,110,104
-15.639,-0.51587,-45.975,71,74,71
-15.639,-0.27358,-45.969,116,110,95
-15.638,-1.2053,-46.077,75,78,77
-15.638,0.24874,-45.941,133,126,105
-15.637,-1.3797,-46.121,72,80,81
-15.636,-0.022592,-45.952,68,67,59
-15.636,0.079227,-45.947,126,119,96
-15.636,-0.43422,-45.973,95,93,80
-15.636,-0.7337,-45.951,50,53,47
-15.636,0.19166,-45.943,127,120,102
-15.635,-1.1027,-46.108,89,90,88
-15.635,-0.85073,-45.936,112,105,87
-15.634,-0.1647,-45.948,38,38,32
-15.634,-0.77941,-45.92,42,42,34
-15.634,-1.0642,-46.092,151,144,126
-15.634,-0.17113,-45.945,31,31,23
-15.634,-1.1366,-46.085,93,94,87
-15.633,-1.1326,-46.11,41,41,32
-15.633,-0.48308,-45.975,101,98,85
-15.632,-0.42148,-45.969,117,112,95
-15.632,-1.0825,-46.154,16,17,18
-15.631,-1.1314,-46.191,15,16,16
-15.631,-1.1398,-46.13,26,26,25
-15.63,-0.58909,-45.977,77,82,76
-15.63,-0.16794,-45.946,32,33,26
-15.63,-1.1564,-46.188,10,12,12
-15.63,0.20212,-45.939,131,124,103
-15.63,0.22637,-45.939,127,121,101
-15.629,-0.88751,-45.931,108,102,87
-15.629,-0.35864,-45.965,138,130,111
-15.629,0.059297,-45.943,130,124,103
-15.629,0.23819,-45.939,143,136,118
-15.629,-1.1176,-46.134,38,41,40
-15.629,-1.1751,-46.067,76,84,80
-15.629,0.012925,-45.945,124,118,101
-15.629,-1.1051,-46.155,16,17,18
-15.629,-0.39581,-45.966,131,125,103
-15.629,-1.15,-46.07,88,94,87
-15.629,-0.06558,-45.944,78,77,65
-15.629,-0.52267,-45.969,95,93,86
-15.629,0.16908,-45.94,129,123,103
-15.629,-1.1491,-46.153,12,12,10
-15.629,-1.1367,-46.066,117,112,101
-15.628,-1.0123,-46.018,84,84,72
-15.628,-0.62925,-45.976,78,84,80
-15.628,-1.12,-46.062,131,125,110
-15.628,-1.1002,-46.058,171,156,132
-15.628,-0.20639,-45.902,67,68,60
-15.627,0.034623,-45.942,127,121,103
-15.627,-0.75445,-45.92,58,61,55
-15.627,-1.1487,-46.198,14,16,15
-15.627,-1.328,-46.064,41,48,52
-15.627,-0.83146,-45.929,110,105,86
-15.626,-1.1613,-46.177,7,8,6
-15.626,-0.098087,-45.945,69,73,69
-15.626,-0.16733,-45.942,32,33,26
-15.625,-0.92557,-45.928,99,93,79
-15.625,0.25395,-45.931,133,126,104
-15.624,-0.97166,-45.939,100,97,79
-15.624,-0.17156,-45.933,30,30,22
-15.624,-0.1926,-45.901,67,68,63
-15.624,-0.17854,-45.918,42,42,32
-15.624,0.14366,-45.94,127,121,101
-15.623,0.27175,-45.921,139,131,111
-15.623,-0.95993,-45.927,93,88,72
-15.623,-1.1348,-46.157,14,15,14
-15.623,-1.0422,-46.053,109,109,95
-15.623,-0.5542,-45.967,72,77,73
-15.622,-1.2126,-46.062,57,58,51
-15.622,-1.1375,-46.058,96,95,87
-15.622,-1.1087,-46.053,96,95,85
-15.621,-1.1324,-46.183,11,12,11
-15.621,-0.12447,-45.937,56,57,50
-15.621,-0.84387,-45.924,102,96,80
-15.62,-0.44176,-45.962,119,114,95
-15.619,0.31025,-45.891,168,161,142
-15.619,-1.1514,-46.176,12,14,12
-15.618,-0.15983,-45.932,44,45,38
-15.618,-0.088997,-45.939,75,80,73
-15.618,-1.0693,-46.051,83,85,80
-15.618,0.074669,-45.936,128,122,100
-15.618,-0.70475,-45.956,43,44,39
-15.618,-1.1149,-46.051,106,102,92
-15.617,0.059433,-45.936,127,120,100
-15.617,0.23738,-45.93,138,130,110
-15.617,-0.24576,-45.944,78,78,69
-15.617,-1.2961,-46.028,38,46,48
-15.616,-1.2504,-46.03,43,46,44
-15.616,-0.30753,-45.952,139,131,111
-15.616,-1.1273,-46.052,89,89,80
-15.616,-1.1605,-46.192,12,14,13
-15.616,-1.1495,-46.2,12,14,12
-15.616,-0.058933,-45.936,88,88,78
-15.615,-1.1586,-46.199,12,14,13
-15.615,-0.28505,-45.951,140,131,111
-15.615,-1.1623,-46.057,68,73,70
-15.615,-0.467,-45.959,131,125,102
-15.614,-0.50635,-45.962,130,124,102
-15.614,0.033264,-45.935,128,122,103
-15.614,0.15173,-45.932,128,122,103
-15.614,-0.81652,-45.918,107,100,81
-15.613,-0.32977,-45.951,141,134,113
-15.613,-0.41313,-45.955,134,127,104
-15.613,-1.0469,-46.038,86,89,80
-15.613,0.04993,-45.933,131,125,105
-15.613,-0.67231,-45.959,61,64,58
-15.612,-1.1553,-46.195,12,14,12
-15.612,-1.0947,-46.048,83,87,80
-15.612,-0.60808,-45.966,75,81,76
-15.611,-0.92698,-45.918,112,105,87
-15.611,-0.098083,-45.934,68,71,68
-15.611,-0.20192,-45.887,62,63,56
-15.61,-0.86332,-45.916,105,99,81
-15.61,0.18636,-45.926,130,123,103
-15.609,0.2514,-45.922,137,129,108
-15.609,-0.18946,-45.892,74,76,70
-15.608,0.22659,-45.925,130,122,96
-15.608,-1.0048,-45.972,98,96,78
-15.608,0.062845,-45.93,129,123,103
-15.608,0.28038,-45.908,151,143,125
-15.608,-0.17196,-45.914,37,37,29
-15.607,0.21049,-45.924,127,120,95
-15.607,-0.3801,-45.95,137,130,111
-15.607,-0.89332,-45.914,110,105,87
-15.606,-0.81099,-45.91,81,77,62
-15.605,-0.18203,-45.901,51,51,43
-15.604,-0.21532,-45.894,78,78,68
-15.604,-0.19455,-45.882,80,82,73
-15.604,-0.48449,-45.953,130,124,100
-15.604,-0.08282,-45.928,78,81,73
-15.604,-1.1325,-46.045,77,82,77
-15.604,-0.30192,-45.943,141,133,111
-15.604,-0.46024,-45.951,130,123,100
-15.603,0.11364,-45.924,132,124,96
-15.603,-0.43078,-45.95,133,126,103
-15.602,-0.64685,-45.954,60,64,60
-15.602,-0.32186,-45.944,141,135,113
-15.602,-0.20293,-45.881,64,66,60
-15.602,-1.2024,-46.049,85,91,87
-15.602,-0.36348,-45.946,137,130,109
-15.602,-1.1658,-46.049,71,77,72
-15.602,-0.39421,-45.947,137,130,111
-15.601,-0.015072,-45.93,127,120,102
-15.601,0.02425,-45.927,129,123,104
-15.6,-0.78612,-45.903,63,63,50
-15.6,0.080239,-45.925,133,127,103
-15.6,-0.17191,-45.911,33,33,26
-15.6,-0.76632,-45.904,46,46,39
-15.6,-0.59642,-45.956,73,80,76
-15.6,-0.15997,-45.917,58,59,52
-15.599,0.16065,-45.92,129,123,102
-15.599,-0.47186,-45.949,129,122,96
-15.598,0.29431,-45.894,171,162,142
-15.598,-0.030515,-45.927,110,104,87
-15.598,-0.43465,-45.946,134,126,103
-15.597,-0.94797,-45.906,93,87,72
-15.597,-0.55606,-45.947,102,101,89
-15.597,-0.43736,-45.946,134,126,104
-15.597,0.23375,-45.916,132,124,101
-15.597,-1.0506,-46.027,105,104,87
-15.597,-0.10753,-45.923,59,61,56
-15.597,-0.33343,-45.942,139,132,111
-15.597,-0.56902,-45.947,77,82,79
-15.597,-0.28357,-45.937,142,135,113
-15.596,-1.2978,-46.014,29,36,40
-15.596,-0.6889,-45.942,56,57,52
-15.596,-0.27324,-45.936,142,135,116
-15.596,-0.82006,-45.904,105,99,80
-15.596,-0.44627,-45.946,133,126,103
-15.596,-0.88737,-45.906,110,105,87
-15.596,-0.34832,-45.942,138,131,110
-15.594,-0.91802,-45.907,107,101,85
-15.594,-0.19609,-45.877,77,80,72
-15.594,-0.8998,-45.905,97,94,76
-15.594,-0.5236,-45.951,127,120,101
-15.594,-0.67639,-45.942,61,63,58
-15.593,-0.40398,-45.942,136,128,109
-15.593,-0.063767,-45.92,88,84,72
-15.593,0.30129,-45.886,168,160,141
-15.593,-0.9368,-45.905,93,87,72
-15.592,-0.61741,-45.953,72,75,72
-15.592,-0.96566,-45.903,127,125,102
-15.592,-0.18256,-45.893,51,52,43
-15.592,-0.83677,-45.903,113,105,87
-15.592,-0.50023,-45.948,127,121,96
-15.592,-0.74352,-45.91,37,40,32
-15.591,-0.71641,-45.927,46,47,42
-15.591,-0.43667,-45.943,133,126,104
-15.591,0.078658,-45.919,133,127,103
-15.59,0.26255,-45.905,133,127,105
-15.59,-0.083718,-45.919,81,83,73
-15.59,0.22002,-45.911,123,115,89
-15.59,0.053278,-45.919,132,126,104
-15.59,0.090347,-45.917,132,124,95
-15.589,-0.27622,-45.932,140,133,112
-15.588,-0.23476,-45.907,138,134,119
-15.588,0.28025,-45.897,144,136,119
-15.588,-0.88141,-45.9,106,102,86
-15.588,0.24654,-45.907,128,121,97
-15.588,-1.1375,-46.037,83,87,80
-15.588,-1.1232,-46.035,83,86,80
-15.588,0.025289,-45.919,127,122,103
-15.587,-0.25202,-45.923,149,143,127
-15.587,-0.68263,-45.938,57,58,52
-15.586,-1.3944,-46.106,44,50,56
-15.586,-0.55243,-45.94,117,113,100
-15.585,-0.80529,-45.894,96,92,72
-15.585,-0.20713,-45.87,125,122,108
-15.585,-0.18804,-45.881,74,75,68
-15.585,-1.3063,-46.011,36,45,48
-15.585,-0.48757,-45.942,127,120,97
-15.585,-0.29258,-45.93,141,133,111
-15.584,-1.0799,-46.037,96,96,87
-15.584,-1.1522,-46.038,81,86,80
-15.584,-0.41902,-45.937,135,127,105
-15.583,-0.86765,-45.897,96,91,73
-15.583,-0.8269,-45.895,101,96,76
-15.583,0.16031,-45.909,130,123,102
-15.583,-0.13319,-45.913,58,59,52
-15.583,-0.91109,-45.898,119,113,95
-15.582,-0.17417,-45.899,33,32,24
-15.582,-0.56008,-45.938,102,99,89
-15.582,-0.9609,-45.894,106,102,80
-15.582,-0.65658,-45.939,71,75,71
-15.582,-1.4542,-46.15,72,77,80
-15.582,-0.89481,-45.896,105,100,84
-15.581,-0.46857,-45.937,131,124,102
-15.581,0.26833,-45.897,138,130,111
-15.581,-0.93137,-45.897,101,96,80
-15.58,-0.35503,-45.932,137,129,110
-15.579,-1.1111,-46.031,96,96,87
-15.579,-1.0955,-46.033,115,113,95
-15.579,0.22397,-45.902,126,118,95
-15.579,0.075648,-45.91,127,120,97
-15.579,0.14033,-45.906,127,120,95
-15.579,-1.0688,-46.029,117,112,95
-15.579,-0.024863,-45.914,119,113,95
-15.578,0.25263,-45.898,134,127,104
-15.578,-0.57422,-45.938,76,81,78
-15.578,0.18881,-45.904,132,125,103
-15.578,-0.98767,-45.917,140,135,111
-15.578,-0.51296,-45.941,127,121,100
-15.578,-1.1269,-46.031,86,89,80
-15.577,-0.3223,-45.929,137,129,109
-15.577,-0.006305,-45.912,123,117,96
-15.577,-0.60939,-45.944,75,81,79
-15.577,-0.91929,-45.894,127,121,102
-15.576,-0.77298,-45.88,42,43,36
-15.576,0.28812,-45.886,165,155,136
-15.576,-0.15672,-45.906,49,49,44
-15.576,-0.38546,-45.931,134,127,105
-15.575,-0.4476,-45.933,135,127,105
-15.575,0.07181,-45.908,127,121,97
-15.575,-0.11375,-45.91,58,59,54
-15.575,0.067828,-45.908,129,124,103
-15.575,-0.049569,-45.91,81,80,68
-15.574,-0.8796,-45.89,113,106,87
-15.574,0.16104,-45.902,129,123,102
-15.573,-0.52374,-45.937,131,125,103
-15.573,-0.42858,-45.931,135,128,108
-15.573,-0.73985,-45.895,54,58,52
-15.573,-1.0772,-46.031,117,113,95
-15.573,-0.84236,-45.888,99,93,76
-15.572,0.23997,-45.896,133,125,103
-15.572,-1.3502,-46.049,49,56,60
-15.572,-0.90428,-45.889,117,112,93
-15.572,-0.80405,-45.882,88,85,65
-15.571,-1.2881,-45.998,41,45,44
-15.571,-0.7573,-45.881,52,53,48
-15.571,0.061589,-45.905,133,127,105
-15.571,-0.14613,-45.906,60,61,55
-15.571,-0.50486,-45.934,127,121,100
-15.571,0.069447,-45.904,130,124,102
-15.571,-1.1666,-46.032,81,86,80
-15.57,0.036376,-45.905,132,126,108
-15.57,-0.69552,-45.93,61,63,56
-15.57,-0.59773,-45.939,74,80,78
-15.57,-0.16132,-45.902,44,44,38
-15.569,-0.090305,-45.906,74,77,72
-15.569,-0.88057,-45.886,118,112,93
-15.569,-0.93275,-45.888,96,91,77
-15.569,-1.2155,-46.026,71,74,71
-15.569,0.0983,-45.901,127,120,95
-15.568,-0.51333,-45.933,128,122,101
-15.568,-0.72307,-45.908,48,49,44
-15.567,-1.0751,-46.024,135,127,104
-15.567,-0.16903,-45.894,35,35,28
-15.566,-0.57891,-45.933,82,85,80
-15.566,0.26863,-45.887,147,139,119
-15.566,0.25645,-45.89,134,127,105
-15.566,-0.11945,-45.904,52,54,48
-15.566,-0.46582,-45.926,131,125,103
-15.566,-0.6596,-45.926,70,74,71
-15.565,-0.24683,-45.905,149,144,127
-15.565,-0.49321,-45.928,127,120,97
-15.565,-0.87071,-45.882,123,117,95
-15.565,-0.70978,-45.923,42,42,35
-15.565,-0.26342,-45.914,142,134,113
-15.564,-0.62059,-45.936,60,64,60
-15.564,-0.15435,-45.9,52,53,48
-15.564,-0.54682,-45.929,109,105,95
-15.564,-0.18419,-45.875,59,60,50
-15.564,-1.0623,-46.01,134,125,103
-15.564,0.29309,-45.875,157,149,129
-15.564,-0.11443,-45.903,54,57,51
-15.563,-1.1916,-46.028,77,82,79
-15.563,0.060503,-45.899,132,126,104
-15.563,-1.4171,-46.111,44,49,52
-15.563,-0.10313,-45.903,68,72,65
-15.563,-0.82863,-45.881,104,99,80
-15.563,-0.061324,-45.901,80,78,68
-15.563,0.21682,-45.891,125,118,95
-15.562,-0.94366,-45.882,88,82,65
-15.561,-0.40225,-45.922,135,128,108
-15.561,-1.314,-46.003,43,49,52
-15.561,-1.2552,-45.993,50,52,44
-15.561,0.076596,-45.896,128,121,97
-15.561,-0.38494,-45.921,138,131,111
-15.561,0.1777,-45.892,129,122,103
-15.56,-0.88513,-45.879,106,101,84
-15.56,-0.048889,-45.9,82,80,68
-15.56,-1.0935,-46.021,130,125,103
-15.559,-0.34564,-45.917,136,129,109
-15.559,0.16358,-45.892,129,122,103
-15.559,-1.3929,-46.089,24,32,36
-15.559,-1.1397,-46.023,89,93,87
-15.559,-0.72568,-45.892,54,57,51
-15.559,-0.086963,-45.899,74,77,72
-15.559,-0.37465,-45.919,132,126,103
-15.559,-0.1319,-45.897,54,57,50
-15.559,-1.1527,-46.024,91,94,88
-15.558,-0.078807,-45.898,80,81,72
-15.557,-1.3307,-46.017,56,62,65
-15.557,0.046194,-45.895,131,125,103
-15.557,-0.68482,-45.915,54,57,50
-15.557,0.055196,-45.894,131,125,103
-15.557,-0.086081,-45.897,74,77,72
-15.556,-0.70425,-45.907,42,42,35
-15.556,-0.58652,-45.929,73,78,76
-15.556,-0.002226,-45.896,126,119,96
-15.555,-0.51202,-45.923,127,122,101
-15.555,0.077719,-45.891,128,121,97
-15.555,-0.40859,-45.917,136,128,109
-15.555,-0.39599,-45.917,139,131,111
-15.554,-1.0373,-45.97,144,135,111
-15.554,-0.033036,-45.896,112,105,87
-15.554,-1.227,-46.009,56,56,46
-15.554,-0.16531,-45.889,32,32,26
-15.554,0.073738,-45.89,128,121,100
-15.554,-0.22195,-45.865,107,107,95
-15.554,-0.17498,-45.88,35,35,27
-15.553,0.19067,-45.887,131,124,103
-15.553,-1.1239,-46.019,95,95,87
-15.553,-0.73984,-45.878,42,44,36
-15.553,-0.77002,-45.857,53,56,50
-15.553,-0.095203,-45.895,70,74,69
-15.552,0.1063,-45.889,129,121,96
-15.552,0.23775,-45.883,131,125,103
-15.552,-0.59314,-45.927,71,76,72
-15.552,-0.19286,-45.857,61,62,52
-15.552,0.022016,-45.893,128,122,103
-15.552,-1.1747,-46.021,84,91,86
-15.552,-0.21173,-45.851,82,83,73
-15.551,-0.25985,-45.903,139,131,112
-15.551,-1.1874,-46.02,85,91,87
-15.55,-0.32839,-45.909,137,130,111
-15.55,-0.58554,-45.926,72,77,72
-15.55,-1.0833,-46.013,137,128,104
-15.55,0.05981,-45.888,130,123,103
-15.549,0.079822,-45.887,128,121,100
-15.549,-0.42842,-45.913,134,127,104
-15.549,0.093764,-45.886,127,120,96
-15.549,-1.4075,-46.097,33,41,44
-15.549,-0.96885,-45.876,86,82,64
-15.548,-1.3883,-46.078,29,34,40
-15.548,-0.4836,-45.914,127,120,97
-15.548,0.29796,-45.854,169,161,139
-15.548,-0.92389,-45.873,115,107,89
-15.548,-0.87655,-45.868,108,102,86
-15.548,-0.10914,-45.891,59,62,56
-15.547,-0.38544,-45.912,139,132,111
-15.547,-1.4414,-46.118,59,63,64
-15.547,-1.2017,-46.014,77,81,79
-15.547,-0.20118,-45.847,80,81,72
-15.546,-0.86857,-45.867,103,98,80
-15.546,0.26001,-45.876,127,120,97
-15.545,-1.1783,-46.018,86,92,87
-15.545,-1.1185,-46.015,109,106,95
-15.545,-0.54206,-45.918,131,125,103
-15.545,-0.022563,-45.89,119,113,88
-15.544,-0.57896,-45.92,82,84,79
-15.543,0.13078,-45.882,128,122,101
-15.543,-0.64292,-45.909,62,65,60
-15.543,-0.59735,-45.919,71,76,72
-15.542,0.012436,-45.886,131,124,103
-15.542,-1.0712,-46.001,138,128,104
-15.542,-0.62258,-45.915,66,70,65
-15.542,-0.50407,-45.912,127,121,100
-15.542,-0.66198,-45.903,70,73,69
-15.542,-0.081364,-45.887,78,82,73
-15.541,-0.67651,-45.902,62,64,58
-15.541,0.24283,-45.875,140,133,111
-15.541,-0.000123,-45.886,128,121,97
-15.54,-1.1903,-46.012,85,90,87
-15.54,0.092362,-45.88,128,122,100
-15.54,-1.4026,-46.088,29,35,40
-15.54,-1.2622,-45.969,65,69,64
-15.54,-0.24836,-45.888,151,144,127
-15.54,0.28047,-45.861,163,153,132
-15.54,-0.27458,-45.897,139,131,112
-15.539,0.045444,-45.882,132,125,103
-15.539,-0.88692,-45.862,106,101,84
-15.539,-1.2951,-45.97,40,48,50
-15.538,-0.74479,-45.867,38,41,34
-15.538,-1.4046,-46.089,30,36,40
-15.537,-1.417,-46.097,37,44,48
-15.537,0.000621,-45.883,129,122,97
-15.537,-1.1085,-46.01,120,115,101
-15.537,0.18873,-45.876,130,124,103
-15.537,-1.4035,-46.087,31,37,43
-15.537,-0.062985,-45.884,89,85,72
-15.537,0.009473,-45.882,134,127,105
-15.536,-0.20276,-45.837,74,75,65
-15.536,-1.4319,-46.105,58,62,64
-15.536,-0.17147,-45.865,37,38,31
-15.536,0.007702,-45.882,135,128,105
-15.535,-0.13503,-45.877,56,57,51
-15.535,-0.95668,-45.861,127,123,100
-15.535,-1.1375,-46.01,90,93,87
-15.535,-1.3973,-46.078,34,41,46
-15.535,-1.4583,-46.12,64,67,70
-15.535,-1.173,-46.011,85,91,87
-15.534,0.27658,-45.861,163,153,131
-15.534,0.24369,-45.871,142,134,113
-15.534,-1.1826,-46.008,84,90,87
-15.534,-0.58649,-45.912,72,76,72
-15.533,-0.81574,-45.857,91,87,69
-15.533,-1.4096,-46.089,36,43,47
-15.533,-0.4752,-45.901,130,124,102
-15.533,-0.36815,-45.9,135,128,109
-15.533,0.2767,-45.859,164,154,133
-15.533,-0.4556,-45.901,128,122,101
-15.533,0.22921,-45.872,127,120,97
-15.533,0.2709,-45.862,154,146,126
-15.532,-0.60496,-45.911,78,84,80
-15.532,0.28475,-45.849,168,158,138
-15.532,0.003925,-45.88,131,124,102
-15.532,-0.34014,-45.897,138,130,109
-15.532,-1.1941,-46.004,83,87,85
-15.531,-0.028394,-45.881,117,109,86
-15.531,-0.87735,-45.857,118,112,94
-15.531,-1.2052,-45.999,82,86,86
-15.531,0.30995,-45.813,137,131,113
-15.531,0.2947,-45.836,164,155,132
-15.53,0.06505,-45.875,130,124,103
-15.53,0.010132,-45.878,131,125,103
-15.53,-1.3284,-45.995,62,66,71
-15.53,-0.39982,-45.899,137,129,110
-15.529,-0.23433,-45.864,152,148,131
-15.529,-1.2181,-45.991,63,63,56
-15.529,-0.90268,-45.858,108,102,85
-15.529,-0.21391,-45.836,75,75,64
-15.528,-1.2371,-45.977,50,51,43
-15.528,-0.080109,-45.879,83,84,77
-15.528,-0.26429,-45.888,144,136,118
-15.528,0.097997,-45.873,129,122,100
-15.528,0.25519,-45.864,134,127,105
-15.528,-1.0958,-46.003,136,127,105
-15.528,-0.83927,-45.856,112,104,85
-15.527,0.27955,-45.851,165,155,136
-15.527,-1.0635,-45.982,143,133,108
-15.527,0.15844,-45.871,130,124,103
-15.527,0.21211,-45.869,123,116,94
-15.526,-0.19751,-45.83,87,88,80
-15.526,-0.007903,-45.876,126,118,94
-15.525,-1.1525,-46.005,89,93,87
-15.525,-1.124,-46.004,97,97,88
-15.525,0.033815,-45.874,130,124,103
-15.525,0.2218,-45.868,119,110,87
-15.525,-0.60236,-45.906,75,81,77
-15.525,-0.15465,-45.864,52,53,47
-15.525,-0.49648,-45.898,128,122,101
-15.524,0.001633,-45.875,129,122,97
-15.524,-0.34197,-45.891,137,129,109
-15.523,-0.77766,-45.84,67,65,52
-15.523,-0.34806,-45.891,136,128,108
-15.523,-0.57402,-45.905,71,75,72
-15.523,-0.63158,-45.901,76,82,77
-15.523,-0.31466,-45.888,139,132,111
-15.521,-0.74273,-45.855,49,52,47
-15.521,-1.4464,-46.103,56,60,63
-15.521,-0.34598,-45.89,136,128,108
-15.521,-1.1086,-46.001,127,120,103
-15.521,-0.33098,-45.888,139,131,111
-15.52,-1.1833,-46,84,90,87
-15.52,-0.052325,-45.874,99,94,76
-15.52,-1.306,-45.967,35,43,44
-15.52,-0.89068,-45.851,103,99,80
-15.52,-1.4282,-46.091,49,54,58
-15.52,-0.98048,-45.872,138,134,110
-15.52,-1.1705,-46.002,82,87,84
-15.519,-0.70506,-45.887,38,40,32
-15.519,-0.000559,-45.872,128,121,95
-15.519,-0.65588,-45.893,71,76,72
-15.518,-1.0088,-45.907,149,141,113
-15.518,-0.87162,-45.849,109,104,87
-15.518,-1.4623,-46.109,60,64,65
-15.518,-1.1635,-46,85,89,85
-15.518,-1.2912,-45.954,33,41,44
-15.517,-1.4408,-46.097,57,62,64
-15.517,-1.2751,-45.951,54,57,54
-15.517,0.22484,-45.862,120,112,89
-15.517,0.2446,-45.859,130,123,103
-15.517,-1.2082,-45.989,72,75,72
-15.517,0.10697,-45.866,129,122,101
-15.516,-1.4443,-46.098,56,61,63
-15.516,-1.4382,-46.094,57,62,64
-15.516,-1.0818,-45.99,138,129,108
-15.516,-1.1124,-45.999,124,118,103
-15.515,-0.61856,-45.899,83,88,81
-15.515,-0.25316,-45.875,156,149,129
-15.515,0.010733,-45.868,129,122,100
-15.515,-1.385,-46.051,36,43,47
-15.515,-0.94285,-45.846,94,88,72
-15.515,-0.4993,-45.892,128,122,101
-15.514,-1.1126,-45.998,122,116,102
-15.514,-0.34639,-45.885,136,128,108
-15.514,-1.2423,-45.963,57,60,52
-15.514,-1.4437,-46.095,53,60,62
-15.514,-0.58397,-45.898,73,77,73
-15.514,-0.000381,-45.867,127,119,95
-15.514,-1.1177,-45.998,109,106,95
-15.514,-0.24328,-45.864,163,156,140
-15.513,-0.4614,-45.89,133,125,103
-15.513,-0.52582,-45.893,130,123,100
-15.513,-0.43039,-45.888,135,127,104
-15.513,-0.48069,-45.89,130,123,102
-15.513,-0.96579,-45.855,104,100,80
-15.513,-0.07043,-45.869,75,74,63
-15.512,-0.097655,-45.868,70,73,69
-15.512,-0.17007,-45.844,36,37,30
-15.512,-0.91595,-45.85,102,97,80
-15.512,-0.448,-45.888,135,127,104
-15.512,-1.17,-45.997,82,88,84
-15.511,-0.022566,-45.867,120,113,87
-15.511,-0.75464,-45.837,63,64,59
-15.511,-0.015603,-45.866,123,115,88
-15.511,-1.1061,-45.994,128,122,103
-15.511,-0.55863,-45.896,123,117,101
-15.511,-0.13157,-45.859,54,56,51
-15.51,-0.49688,-45.889,128,122,101
-15.51,0.06725,-45.862,128,122,102
-15.51,-0.40343,-45.886,138,129,110
-15.509,0.14894,-45.859,128,120,100
-15.509,-0.49101,-45.888,127,121,100
-15.509,0.045538,-45.863,129,123,103
-15.509,-1.4611,-46.1,60,64,65
-15.509,0.096487,-45.861,127,121,100
-15.509,-1.1435,-45.994,88,93,87
-15.509,0.15788,-45.859,131,125,103
-15.509,0.19011,-45.856,137,126,102
-15.508,-0.82152,-45.84,110,104,84
-15.508,-1.1854,-45.992,85,91,87
-15.507,-0.63119,-45.894,81,86,80
-15.507,0.20911,-45.854,124,115,92
-15.507,0.2607,-45.847,157,148,127
-15.507,-0.95596,-45.846,74,70,56
-15.507,-0.50151,-45.887,129,123,103
-15.507,-0.3598,-45.881,136,128,108
-15.507,-0.025768,-45.864,119,112,87
-15.507,-0.051554,-45.864,83,78,64
-15.506,-1.3032,-45.952,29,35,39
-15.506,-0.8476,-45.841,118,110,87
-15.506,-0.28794,-45.876,143,135,117
-15.506,-0.032515,-45.863,110,103,80
-15.506,-1.4065,-46.063,40,46,50
-15.506,0.12765,-45.857,129,122,101
-15.505,-0.83519,-45.841,125,117,93
-15.505,0.055683,-45.86,129,123,103
-15.505,-0.11625,-45.86,53,54,51
-15.505,-0.90039,-45.847,110,106,87
-15.505,0.2276,-45.853,119,109,87
-15.505,-1.2578,-45.945,50,52,51
-15.505,0.028864,-45.86,133,127,103
-15.503,-1.2142,-45.98,69,71,65
-15.503,0.049538,-45.858,130,124,103
-15.503,-0.98999,-45.876,142,137,111
-15.503,-0.48741,-45.884,128,121,101
-15.503,-0.73516,-45.846,49,52,47
-15.502,-1.2878,-45.943,45,50,52
-15.502,-0.83103,-45.838,122,114,88
-15.502,-0.026163,-45.859,117,109,86
-15.502,-0.23385,-45.846,144,141,127
-15.501,-0.67868,-45.879,68,71,65
-15.501,-0.43588,-45.882,135,127,104
-15.501,-0.26497,-45.869,145,137,119
-15.5,-0.61175,-45.889,75,78,73
-15.5,-0.067737,-45.859,88,87,76
-15.5,0.28125,-45.831,145,134,112
-15.5,-0.65764,-45.881,66,69,64
-15.5,0.17656,-45.849,150,138,116
-15.499,-0.71628,-45.857,52,56,50
-15.499,0.035702,-45.855,131,124,103
-15.499,-0.9464,-45.845,91,84,71
-15.499,-0.63226,-45.887,65,69,64
-15.499,-0.4046,-45.878,139,131,111
-15.499,-1.2986,-45.944,34,42,46
-15.498,-0.33557,-45.873,137,130,111
-15.498,-0.47243,-45.881,133,124,103
-15.498,-0.37998,-45.875,138,130,110
-15.498,-1.3636,-46.016,52,57,62
-15.498,-1.1875,-45.985,85,89,87
-15.498,0.00221,-45.854,129,121,95
-15.498,-1.0799,-45.977,132,125,105
-15.498,-0.085155,-45.857,82,83,73
-15.497,-0.20021,-45.805,61,62,54
-15.497,0.055586,-45.851,129,122,101
-15.497,0.20541,-45.843,135,124,97
-15.497,-0.016589,-45.854,124,116,88
-15.496,-1.1193,-45.984,93,95,87
-15.496,-0.57856,-45.884,74,77,73
-15.496,0.24309,-45.842,140,129,104
-15.496,-0.51486,-45.881,130,124,102
-15.495,-0.13445,-45.846,51,52,47
-15.495,-1.4461,-46.08,46,50,55
-15.495,-0.41749,-45.877,135,126,104
-15.494,-0.97382,-45.857,120,117,95
-15.494,0.15337,-45.843,135,126,103
-15.494,0.015258,-45.851,135,126,102
-15.493,-0.098913,-45.853,68,71,65
-15.492,-0.73894,-45.836,42,44,36
-15.492,-1.1654,-45.983,85,90,87
-15.492,-0.6952,-45.865,50,52,48
-15.492,-0.15312,-45.839,48,48,42
-15.491,-1.3845,-46.036,38,44,48
-15.491,0.074798,-45.845,136,127,103
-15.491,-0.11416,-45.849,56,58,52
-15.491,-0.87695,-45.834,122,115,95
-15.491,-0.047302,-45.849,91,87,72
-15.491,-0.006154,-45.849,131,122,95
-15.491,-0.93026,-45.845,95,89,73
-15.49,-0.45795,-45.875,133,126,103
-15.49,-0.003557,-45.848,135,125,96
-15.49,0.22238,-45.835,140,127,97
-15.49,-0.073841,-45.849,90,89,79
-15.489,0.29744,-45.806,145,138,119
-15.489,0.023436,-45.845,135,127,103
-15.489,-0.77424,-45.819,52,51,44
-15.488,-0.96145,-45.849,94,88,72
-15.488,-0.1034,-45.849,63,64,60
-15.488,-0.10051,-45.849,65,68,64
-15.488,0.18797,-45.834,147,135,111
-15.487,-0.67613,-45.866,62,63,56
-15.487,0.23382,-45.832,142,129,103
-15.487,-0.7559,-45.819,53,58,51
-15.487,0.099874,-45.839,140,130,105
-15.487,-0.62434,-45.876,64,67,63
-15.487,-0.25028,-45.854,158,151,133
-15.486,-0.005305,-45.844,137,127,101
-15.486,-0.72377,-45.845,26,29,24
-15.486,-1.286,-45.931,48,50,50
-15.486,-0.60164,-45.877,73,78,73
-15.486,-0.36088,-45.865,133,127,104
-15.486,-1.3078,-45.943,35,43,46
-15.485,-1.2197,-45.965,67,68,62
-15.485,-0.81059,-45.822,90,86,68
-15.485,-0.1647,-45.826,32,31,23
-15.485,-0.017213,-45.843,128,119,89
-15.484,-1.2064,-45.972,77,81,78
-15.484,-0.43394,-45.87,136,127,105
-15.484,-0.11371,-45.843,54,57,52
-15.484,0.040367,-45.838,125,116,95
-15.484,-0.11566,-45.842,53,57,52
-15.484,-0.52506,-45.874,129,123,97
-15.483,-0.49357,-45.872,132,126,101
-15.483,-0.64067,-45.869,58,61,56
-15.483,-0.30721,-45.862,139,131,111
-15.483,0.25168,-45.826,137,126,101
-15.483,-0.3814,-45.863,134,127,104
-15.483,-0.54931,-45.873,90,89,80
-15.483,-0.10243,-45.843,60,63,59
-15.483,-0.066612,-45.842,92,89,77
-15.483,0.058528,-45.836,123,115,95
-15.482,0.047803,-45.835,122,114,94
-15.482,-0.33293,-45.862,137,130,111
-15.482,-0.47195,-45.87,132,125,102
-15.482,0.045216,-45.835,122,114,94
-15.482,-0.03188,-45.84,126,116,88
-15.481,0.28338,-45.819,166,154,132
-15.481,-1.0595,-45.948,139,130,108
-15.481,0.043882,-45.834,123,114,94
-15.481,-1.1351,-45.974,90,94,87
-15.481,-0.32162,-45.862,139,131,111
-15.481,-0.61178,-45.873,73,77,72
-15.481,-1.3406,-45.977,61,65,69
-15.48,-0.44727,-45.868,137,128,108
-15.48,-0.67774,-45.86,64,65,60
-15.48,0.30912,-45.786,85,82,68
-15.48,-0.64867,-45.864,66,70,64
-15.48,-1.0919,-45.969,132,124,103
-15.48,0.20854,-45.824,139,127,101
-15.48,-1.259,-45.929,68,70,68
-15.48,-0.12262,-45.836,50,52,48
-15.479,-1.247,-45.935,68,72,65
-15.479,0.14151,-45.826,135,123,97
-15.479,-0.053223,-45.838,103,97,80
-15.479,0.003742,-45.835,136,127,103
-15.479,-0.08999,-45.839,64,66,63
-15.479,0.22824,-45.821,144,129,96
-15.479,0.087474,-45.83,141,131,108
-15.478,0.23539,-45.822,139,126,96
-15.478,-0.11196,-45.837,53,57,52
-15.478,-0.042409,-45.836,114,105,84
-15.478,-1.1878,-45.972,85,90,87
-15.478,0.22283,-45.821,138,125,95
-15.477,-0.2747,-45.854,142,133,113
-15.477,-0.48016,-45.867,134,127,103
-15.477,-0.78553,-45.815,46,46,36
-15.477,-0.74726,-45.818,58,60,54
-15.477,-0.048019,-45.836,108,101,80
-15.477,-1.2291,-45.948,65,65,59
-15.477,-0.46905,-45.866,135,128,103
-15.477,-0.77065,-45.812,49,48,42
-15.477,0.04477,-45.83,120,112,93
-15.476,-1.1046,-45.969,101,99,92
-15.476,-0.37033,-45.858,130,123,102
-15.476,-0.41443,-45.862,136,128,108
-15.475,-0.7945,-45.816,51,51,43
-15.475,-1.0129,-45.891,146,139,112
-15.475,-0.11704,-45.833,50,52,48
-15.475,-1.3957,-46.036,36,42,46
-15.475,-0.048732,-45.834,109,101,80
-15.474,0.091119,-45.825,142,131,105
-15.474,-1.1274,-45.971,93,95,87
-15.474,-1.154,-45.97,89,94,87
-15.474,0.029351,-45.827,131,123,100
-15.474,-1.448,-46.067,57,61,63
-15.474,-0.31158,-45.857,137,129,109
-15.473,-0.11535,-45.832,50,52,50
-15.473,-0.29791,-45.855,139,131,110
-15.472,-0.2757,-45.85,146,138,118
-15.472,-0.15316,-45.821,40,40,34
-15.472,0.11331,-45.822,140,127,101
-15.472,0.089165,-45.823,149,137,112
-15.472,0.28447,-45.809,151,143,125
-15.472,-0.32061,-45.854,140,132,111
-15.472,0.066936,-45.825,128,120,96
-15.472,0.17436,-45.818,113,104,86
-15.471,0.14253,-45.818,147,135,111
-15.471,-1.4213,-46.048,40,46,50
-15.471,-0.46692,-45.861,133,127,103
-15.471,-1.1382,-45.968,89,92,87
-15.471,-0.6454,-45.858,69,74,70
-15.47,0.2667,-45.815,138,130,111
-15.47,-0.067639,-45.829,100,94,80
-15.47,-0.31088,-45.854,139,131,111
-15.47,-0.28215,-45.849,146,136,116
-15.47,0.092377,-45.822,141,130,108
-15.469,-0.79263,-45.81,54,54,48
-15.469,-0.096585,-45.83,56,60,56
-15.469,-1.2,-45.964,82,86,81
-15.469,-0.11653,-45.827,48,49,46
-15.469,-0.05172,-45.827,105,96,79
-15.469,-0.54705,-45.863,122,116,95
-15.468,-0.77892,-45.808,40,40,34
-15.468,-0.62804,-45.86,70,73,69
-15.468,-0.34371,-45.853,138,130,111
-15.468,-0.36761,-45.853,127,120,96
-15.467,0.21655,-45.815,109,102,85
-15.467,-0.034375,-45.824,127,118,92
-15.467,-0.30615,-45.85,144,135,111
-15.467,-1.1269,-45.965,94,95,87
-15.467,-0.063816,-45.825,109,100,85
-15.467,-0.52417,-45.861,129,122,96
-15.466,-1.1889,-45.966,87,92,87
-15.466,-0.98673,-45.867,100,97,80
-15.466,-0.24191,-45.833,168,156,136
-15.466,0.087705,-45.819,131,121,103
-15.466,-1.2326,-45.934,57,56,47
-15.466,-1.2839,-45.92,42,47,48
-15.466,-0.75984,-45.805,57,57,50
-15.465,-1.1946,-45.965,89,95,89
-15.465,-0.60594,-45.86,71,74,70
-15.465,-0.53813,-45.86,127,119,95
-15.465,-1.2457,-45.926,64,68,62
-15.465,-1.0494,-45.928,146,136,111
-15.465,-0.48869,-45.856,134,127,102
-15.465,-0.27626,-45.843,155,144,120
-15.465,-1.3889,-46.023,47,49,54
-15.465,-0.010455,-45.821,124,115,93
-15.464,-0.44327,-45.854,130,123,102
-15.464,0.29141,-45.797,146,139,119
-15.464,0.27588,-45.808,144,137,121
-15.464,-1.1731,-45.964,85,90,86
-15.463,-0.067953,-45.822,84,78,68
-15.463,-1.108,-45.96,118,112,97
-15.463,-0.16746,-45.808,32,32,24
-15.463,-0.29275,-45.843,154,143,119
-15.462,-0.21694,-45.794,133,129,111
-15.462,-0.26271,-45.838,154,143,121
-15.462,-0.77716,-45.801,46,46,40
-15.461,-1.463,-46.07,62,64,68
-15.461,0.13486,-45.813,91,86,72
-15.461,-0.47648,-45.851,133,126,101
-15.461,0.053553,-45.818,96,91,78
-15.461,-1.4008,-46.03,40,45,48
-15.461,-1.1931,-45.961,89,94,89
-15.461,0.013977,-45.818,127,117,95
-15.46,0.27953,-45.804,148,140,125
-15.46,-1.2099,-45.953,70,73,68
-15.46,-0.057612,-45.819,69,65,56
-15.46,-0.020782,-45.817,90,84,68
-15.46,-0.73955,-45.808,53,57,50
-15.459,-0.47004,-45.849,133,125,97
-15.459,-0.82211,-45.805,89,85,69
-15.459,-1.3133,-45.931,63,68,72
-15.459,-0.58999,-45.853,72,75,69
-15.459,-0.31454,-45.84,158,147,120
-15.458,-0.38601,-45.844,131,124,102
-15.458,-0.35953,-45.845,130,122,96
-15.458,0.2713,-45.806,126,121,108
-15.458,0.24849,-45.81,38,47,52
-15.458,-0.071204,-45.818,53,53,48
-15.457,0.18743,-45.81,72,71,63
-15.457,-1.1845,-45.959,86,91,87
-15.456,-0.55658,-45.85,103,96,77
-15.456,-0.70074,-45.843,69,74,70
-15.456,0.09755,-45.813,80,75,68
-15.456,-1.3749,-46.002,61,64,65
-15.456,-0.51209,-45.849,131,124,96
-15.455,-0.78933,-45.795,54,54,48
-15.455,-0.20297,-45.774,60,60,50
-15.455,-0.90611,-45.834,86,86,76
-15.455,-0.038862,-45.816,70,66,56
-15.454,-0.00609,-45.813,68,66,56
-15.454,-1.2497,-45.916,58,63,52
-15.454,-0.34235,-45.836,172,157,128
-15.453,0.039959,-45.812,59,59,55
-15.453,-0.28546,-45.831,169,156,129
-15.453,-1.4141,-46.033,50,54,58
-15.453,-1.1413,-45.953,90,94,87
-15.453,-0.53737,-45.846,130,120,94
-15.453,-0.11319,-45.813,52,54,48
-15.452,-1.0256,-45.9,149,141,113
-15.452,-0.48063,-45.841,136,127,97
-15.451,-1.2104,-45.943,64,64,56
-15.451,0.16384,-45.807,44,51,55
-15.45,-0.73291,-45.803,52,56,48
-15.45,-0.71982,-45.815,57,59,52
-15.45,-0.30661,-45.827,145,136,117
-15.45,-0.087633,-45.815,42,43,38
-15.449,-0.8618,-45.813,97,94,80
-15.449,0.27925,-45.798,132,127,112
-15.449,0.20423,-45.809,52,58,56
-15.449,-1.1592,-45.952,90,95,88
-15.449,-0.42306,-45.835,147,135,109
-15.449,-0.23839,-45.815,151,144,126
-15.448,-1.3028,-45.916,37,46,48
-15.447,-0.26237,-45.825,136,127,108
-15.446,-0.52748,-45.839,150,138,104
-15.446,-0.94719,-45.849,96,91,78
-15.446,-1.1948,-45.947,83,87,84
-15.445,-0.75661,-45.784,37,37,32
-15.445,-0.24719,-45.819,151,142,124
-15.444,-0.43791,-45.829,151,139,111
-15.444,0.068062,-45.808,103,96,80
-15.444,-1.0912,-45.943,141,131,108
-15.444,0.008075,-45.808,50,54,51
-15.444,-1.1326,-45.945,91,94,87
-15.444,-0.1321,-45.803,51,53,47
-15.443,-0.78141,-45.782,34,35,32
-15.443,-0.52986,-45.835,164,150,119
-15.443,-1.0679,-45.93,145,134,110
-15.443,-0.33059,-45.822,157,146,125
-15.443,-0.52824,-45.834,165,152,119
-15.443,-0.6497,-45.84,66,70,64
-15.442,-1.2441,-45.908,74,80,72
-15.442,-0.098589,-45.809,47,48,43
-15.442,-0.51977,-45.833,146,135,105
-15.441,-0.4503,-45.826,144,133,108
-15.441,-0.53571,-45.832,133,124,97
-15.441,-0.1498,-45.8,45,46,40
-15.44,-1.4434,-46.04,59,63,64
-15.44,-1.2281,-45.917,58,57,48
-15.439,-0.58237,-45.825,95,91,72
-15.439,-1.1741,-45.946,86,91,87
-15.439,-1.466,-46.055,58,60,64
-15.439,-0.73266,-45.796,41,42,35
-15.438,-1.1482,-45.942,91,95,88
-15.438,-1.4164,-46.025,63,66,70
-15.438,-1.1619,-45.945,88,92,86
-15.438,0.044692,-45.807,61,65,64
-15.438,0.11293,-45.805,70,70,64
-15.438,-1.4219,-46.027,63,67,70
-15.438,-0.36562,-45.819,158,144,113
-15.437,0.29979,-45.77,126,121,103
-15.436,-1.1844,-45.943,87,92,87
-15.436,-0.7103,-45.811,36,36,28
-15.436,0.27162,-45.797,83,82,76
-15.436,-0.4183,-45.819,103,97,80
-15.436,0.18036,-45.806,48,53,52
-15.435,-0.55737,-45.822,75,70,56
-15.435,-1.1655,-45.943,85,89,84
-15.435,-0.50381,-45.825,96,92,69
-15.435,-0.22212,-45.778,126,122,103
-15.433,-0.30742,-45.814,100,95,85
-15.433,-1.174,-45.942,87,92,87
-15.433,-0.62748,-45.834,73,77,72
-15.432,-0.74883,-45.781,58,59,52
-15.432,-0.43682,-45.818,82,80,64
-15.432,-1.4399,-46.033,63,66,70
-15.432,-0.24856,-45.808,141,133,117
-15.431,-1.1761,-45.94,87,92,87
-15.431,-1.2584,-45.894,72,74,72
-15.431,-1.1211,-45.933,96,96,87
-15.431,-0.77786,-45.774,40,40,34
-15.431,-0.68585,-45.83,46,46,40
-15.431,-1.0845,-45.931,136,128,104
-15.431,-1.3993,-46.012,64,67,70
-15.43,-0.015306,-45.805,61,69,73
-15.43,-1.0585,-45.918,147,136,111
-15.429,-1.4199,-46.022,64,68,72
-15.429,-1.1736,-45.938,86,91,87
-15.429,0.023606,-45.803,52,57,55
-15.428,-1.2456,-45.895,78,84,79
-15.428,-0.057501,-45.807,56,54,48
-15.428,-0.17011,-45.787,41,41,32
-15.427,-1.2827,-45.892,57,58,56
-15.427,-1.1635,-45.936,87,91,86
-15.426,-1.1098,-45.93,115,112,96
-15.426,-0.23846,-45.795,134,129,111
-15.426,-0.75822,-45.772,40,40,32
-15.426,0.084145,-45.801,70,86,96
-15.425,-1.2,-45.93,80,83,79
-15.425,-1.1842,-45.934,86,91,87
-15.425,-0.65372,-45.828,68,70,64
-15.425,-0.4251,-45.815,96,93,78
-15.424,-1.3717,-45.977,64,67,71
-15.424,-0.47933,-45.82,107,102,95
-15.422,-1.4585,-46.038,61,65,69
-15.422,-0.58204,-45.813,64,64,52
-15.422,-1.0202,-45.89,130,126,103
-15.422,-0.20096,-45.753,57,58,48
