-18.493,-1.8893,-55.675,64,72,78
-18.491,-1.5505,-55.703,86,94,102
-18.488,-2.0035,-55.738,68,97,126
-18.484,-1.9813,-55.897,59,70,81
-18.469,-1.9379,-55.699,58,83,103
-18.469,-2.2175,-55.885,63,87,111
-18.465,-1.9761,-55.714,64,94,120
-18.463,-1.8049,-55.663,99,104,104
-18.458,-2.0786,-55.774,68,97,127
-18.457,-1.8656,-55.674,80,86,88
-18.455,-1.8416,-55.668,93,96,95
-18.453,-2.205,-55.839,66,94,120
-18.45,-1.8269,-55.667,90,93,88
-18.449,-2.1338,-55.802,67,96,124
-18.445,-2.3666,-55.954,64,91,119
-18.439,-1.8935,-55.686,58,69,78
-18.435,-2.324,-55.892,65,92,119
-18.432,-2.2063,-55.828,64,92,119
-18.431,-1.8217,-55.666,93,97,95
-18.43,-2.2809,-55.866,64,91,118
-18.429,-2.4035,-55.96,64,92,119
-18.428,-2.335,-55.882,62,92,118
-18.427,-2.3535,-55.9,64,93,119
-18.426,-1.8883,-55.687,62,70,77
-18.424,-1.9971,-55.727,65,95,120
-18.424,-1.8909,-55.688,61,69,76
-18.423,-2.323,-55.88,63,90,117
-18.423,-2.2319,-55.835,63,90,118
-18.422,-2.3672,-55.905,63,93,119
-18.421,-2.2515,-55.846,63,89,116
-18.419,-2.3053,-55.875,62,88,112
-18.419,-1.8915,-55.688,58,67,72
-18.419,-2.0746,-55.763,66,96,125
-18.418,-2.2881,-55.869,62,87,111
-18.418,-2.3451,-55.89,63,91,118
-18.416,-1.8415,-55.673,92,96,94
-18.416,-1.8827,-55.685,69,77,80
-18.416,-2.2207,-55.821,64,91,119
-18.415,-2.4488,-56.131,38,51,65
-18.415,-2.1424,-55.786,65,94,121
-18.411,-1.9297,-55.702,52,73,93
-18.41,-2.3105,-55.876,61,87,111
-18.41,-2.3011,-55.874,61,86,111
-18.409,-2.3217,-55.878,63,88,113
-18.408,-2.2893,-55.866,61,86,111
-18.407,-1.6204,-55.646,84,93,100
-18.399,-1.9006,-55.694,52,64,71
-18.399,-2.4157,-55.953,65,96,125
-18.397,-2.3693,-55.898,62,88,112
-18.395,-2.1937,-55.786,59,86,112
-18.393,-2.2659,-55.834,64,90,116
-18.39,-2.1037,-55.76,66,93,121
-18.389,-2.3081,-55.868,61,84,111
-18.388,-2.3367,-55.875,65,91,117
-18.386,-1.8794,-55.685,86,91,93
-18.383,-2.0521,-55.741,67,96,120
-18.378,-2.5278,-56.114,66,95,126
-18.375,-2.2328,-55.789,65,92,119
-18.368,-2.1961,-55.764,67,94,120
-18.368,-2.1411,-55.756,67,93,120
-18.367,-1.7973,-55.666,97,103,105
-18.364,-2.3582,-55.864,56,78,103
-18.363,-2.3161,-55.863,66,91,113
-18.363,-1.8769,-55.684,84,90,92
-18.362,-1.959,-55.715,61,85,103
-18.36,-2.3147,-55.846,64,88,111
-18.36,-2.4058,-55.906,78,101,127
-18.359,-1.8965,-55.693,61,70,73
-18.358,-1.8497,-55.676,96,101,103
-18.355,-1.9096,-55.7,47,58,64
-18.355,-2.1841,-55.751,70,95,121
-18.353,-2.3413,-55.844,75,92,111
-18.347,-2.5787,-56.28,44,59,77
-18.347,-1.9135,-55.7,50,65,76
-18.345,-2.3659,-55.841,80,93,110
-18.344,-1.9004,-55.695,58,67,72
-18.343,-2.2991,-55.786,86,106,127
-18.343,-2.0904,-55.742,86,108,137
-18.336,-2.1947,-55.746,88,112,138
-18.332,-2.3563,-55.794,130,135,146
-18.322,-2.0179,-55.726,64,90,109
-18.32,-2.3255,-55.755,117,137,152
-18.32,-2.1348,-55.743,91,116,140
-18.314,-2.2531,-55.749,87,110,132
-18.314,-1.8229,-55.669,101,107,111
-18.312,-1.9535,-55.715,57,75,89
-18.312,-2.3494,-55.762,137,151,159
-18.307,-1.8047,-55.666,105,114,117
-18.305,-2.304,-55.746,99,123,142
-18.303,-2.3987,-55.831,144,155,170
-18.301,-1.8652,-55.681,84,92,95
-18.292,-2.3231,-55.735,96,117,127
-18.285,-1.7198,-55.662,58,65,70
-18.282,-2.078,-55.731,67,92,111
-18.276,-2.2814,-55.734,71,96,116
-18.273,-2.2364,-55.735,70,96,118
-18.272,-2.2824,-55.732,63,87,104
-18.272,-2.3438,-55.74,113,126,136
-18.271,-2.2716,-55.733,68,93,112
-18.271,-2.29,-55.732,74,96,112
-18.263,-2.1869,-55.735,73,99,121
-18.256,-2.3153,-55.725,84,96,109
-18.254,-2.1492,-55.732,72,100,124
-18.254,-1.6137,-55.624,49,63,72
-18.25,-2.3671,-55.744,122,134,146
-18.249,-2.5994,-56.096,108,140,177
-18.244,-1.7078,-55.658,47,59,64
-18.241,-1.7798,-55.657,85,92,94
-18.239,-2.0208,-55.724,45,63,77
-18.238,-1.9775,-55.714,48,65,80
-18.237,-2.3209,-55.718,92,102,112
-18.237,-2.2466,-55.73,67,92,112
-18.236,-1.7356,-55.673,49,58,60
-18.235,-1.7474,-55.671,52,58,59
-18.234,-2.3104,-55.722,88,99,111
-18.227,-2.3714,-55.737,109,124,139
-18.226,-2.3503,-55.715,109,125,139
-18.224,-2.2874,-55.725,82,99,119
-18.222,-1.7377,-55.675,44,49,52
-18.22,-2.0651,-55.722,60,81,100
-18.219,-1.9032,-55.688,63,73,80
-18.218,-2.8009,-56.428,84,118,158
-18.217,-1.7132,-55.654,47,56,60
-18.214,-2.3061,-55.719,93,107,121
-18.211,-2.1746,-55.728,85,112,133
-18.207,-2.2492,-55.727,82,109,129
-18.204,-2.4474,-55.843,118,136,159
-18.203,-2.325,-55.712,90,103,113
-18.203,-2.2949,-55.72,84,106,126
-18.198,-2.2738,-55.725,76,104,126
-18.197,-2.2427,-55.726,73,102,124
-18.197,-2.2038,-55.726,74,98,121
-18.193,-2.1508,-55.724,75,105,127
-18.192,-2.2601,-55.725,69,98,119
-18.19,-2.2643,-55.725,65,96,117
-18.19,-2.1661,-55.724,72,102,125
-18.188,-2.0078,-55.717,48,65,80
-18.187,-2.2644,-55.725,62,92,111
-18.187,-2.0354,-55.722,52,69,86
-18.187,-2.1126,-55.72,76,104,127
-18.186,-2.2635,-55.724,62,92,111
-18.185,-2.0833,-55.718,61,88,108
-18.184,-2.2734,-55.723,64,93,111
-18.18,-1.6573,-55.615,50,60,68
-18.177,-2.2414,-55.722,66,96,117
-18.176,-2.3629,-55.722,107,121,133
-18.173,-2.2683,-55.721,63,90,111
-18.167,-2.1699,-55.719,72,99,121
-18.162,-2.2529,-55.718,64,91,111
-18.16,-2.843,-56.424,103,145,195
-18.16,-2.3157,-55.703,71,84,93
-18.157,-2.3046,-55.708,67,82,93
-18.155,-2.0736,-55.715,67,92,111
-18.155,-2.2833,-55.714,68,90,109
-18.152,-2.8512,-56.485,93,129,175
-18.152,-2.8178,-56.351,110,151,200
-18.151,-2.2674,-55.715,72,96,119
-18.15,-1.8086,-55.643,86,93,95
-18.148,-2.6759,-56.148,115,146,181
-18.144,-2.2417,-55.712,75,98,120
-18.141,-1.7002,-55.611,82,91,96
-18.132,-2.1823,-55.712,83,104,127
-18.128,-2.3155,-55.707,89,101,116
-18.128,-2.3429,-55.71,113,126,142
-18.126,-2.3644,-55.723,116,129,145
-18.125,-2.0984,-55.71,80,102,127
-18.125,-2.2949,-55.708,90,103,121
-18.123,-2.2596,-55.707,64,90,111
-18.123,-2.1527,-55.711,92,115,139
-18.121,-1.573,-55.57,82,95,103
-18.117,-1.954,-55.699,59,76,94
-18.116,-2.2189,-55.708,102,124,147
-18.114,-2.2782,-55.709,106,126,147
-18.112,-2.0403,-55.712,77,97,119
-18.103,-2.2606,-55.706,118,137,160
-18.101,-2.1206,-55.708,99,124,146
-18.101,-2.4226,-55.802,104,125,145
-18.101,-2.2725,-55.705,119,140,163
-18.096,-2.7848,-56.272,114,147,186
-18.096,-1.8773,-55.663,71,78,81
-18.096,-2.2879,-55.707,101,121,142
-18.094,-1.6697,-55.581,106,120,128
-18.09,-1.6922,-55.588,102,115,125
-18.083,-2.2692,-55.708,103,127,152
-18.079,-1.8247,-55.637,90,96,96
-18.075,-2.3478,-55.733,96,116,136
-18.075,-2.0988,-55.71,85,110,133
-18.071,-2.1646,-55.71,99,127,148
-18.066,-1.6406,-55.566,104,119,128
-18.066,-2.2315,-55.709,81,108,129
-18.063,-2.0007,-55.705,68,92,119
-18.06,-1.7862,-55.617,103,110,113
-18.058,-1.7394,-55.597,100,112,119
-18.047,-2.9617,-56.575,108,152,207
-18.045,-1.6799,-55.571,107,120,129
-18.044,-2.2755,-55.722,71,96,119
-18.044,-2.1206,-55.711,63,90,113
-18.034,-1.7907,-55.614,104,112,116
-18.032,-1.9162,-55.672,59,80,96
-18.031,-2.0893,-55.714,67,93,119
-18.03,-1.7744,-55.606,108,117,120
-18.025,-1.7831,-55.608,102,109,112
-18.023,-1.8273,-55.629,86,91,92
-18.022,-1.9722,-55.693,62,88,111
-18.02,-1.5708,-55.547,86,98,108
-18.003,-2.1922,-55.725,59,84,110
-17.997,-1.6306,-55.553,94,108,119
-17.996,-2.0481,-55.71,68,95,121
-17.995,-2.3094,-55.755,67,93,118
-17.993,-1.6915,-55.565,98,113,121
-17.981,-1.9256,-55.665,64,83,100
-17.98,-1.7565,-55.586,99,110,117
-17.979,-2.6293,-56.038,106,143,186
-17.978,-2.1222,-55.722,63,88,116
-17.976,-2.4025,-55.81,83,110,142
-17.965,-2.2471,-55.746,60,84,110
-17.945,-1.8355,-55.613,86,95,97
-17.942,-2.0021,-55.681,65,93,119
-17.939,-1.688,-55.552,103,115,126
-17.937,-1.6453,-55.546,96,107,118
-17.936,-2.1834,-55.744,64,89,117
-17.931,-2.115,-55.723,66,93,119
-17.922,-2.0617,-55.7,67,94,124
-17.921,-2.2826,-55.774,65,90,113
-17.92,-2.2315,-55.764,63,88,112
-17.913,-1.5594,-55.541,69,81,87
-17.911,-1.8705,-55.619,78,87,89
-17.909,-2.2432,-55.772,64,89,112
-17.907,-2.905,-56.359,108,153,206
-17.905,-1.6625,-55.548,105,117,127
-17.903,-1.7252,-55.571,106,118,126
-17.902,-2.2119,-55.762,64,90,116
-17.9,-2.9722,-56.48,108,153,207
-17.896,-2.2319,-55.768,64,90,113
-17.896,-2.1585,-55.737,67,93,119
-17.892,-2.3026,-55.778,70,94,119
-17.889,-1.842,-55.609,90,97,101
-17.888,-2.0694,-55.692,68,96,125
-17.887,-2.358,-55.785,72,98,127
-17.886,-1.9176,-55.639,64,83,96
-17.884,-2.0243,-55.675,67,96,121
-17.877,-1.7852,-55.593,104,112,117
-17.876,-3.034,-56.609,108,152,207
-17.875,-2.1073,-55.707,66,94,120
-17.87,-2.1991,-55.75,67,92,119
-17.868,-1.6153,-55.552,94,105,113
-17.868,-2.1424,-55.72,66,94,119
-17.865,-2.2557,-55.765,73,96,119
-17.861,-2.307,-55.768,90,109,129
-17.86,-2.1414,-55.716,66,93,119
-17.859,-2.1382,-55.714,65,92,119
-17.852,-1.6569,-55.561,96,109,120
-17.845,-2.0849,-55.691,65,93,119
-17.844,-2.1144,-55.703,64,92,119
-17.844,-1.7161,-55.575,96,108,119
-17.842,-2.1398,-55.717,65,92,118
-17.841,-1.4904,-55.525,33,45,52
-17.84,-2.0055,-55.665,64,91,117
-17.839,-2.3601,-55.773,103,119,139
-17.839,-1.8967,-55.632,57,70,80
-17.837,-1.589,-55.555,68,83,95
-17.833,-2.3973,-55.782,92,114,141
-17.833,-2.459,-55.838,102,133,171
-17.832,-2.2069,-55.747,73,96,119
-17.824,-1.9403,-55.646,56,76,95
-17.823,-2.9982,-56.448,107,156,213
-17.813,-1.8118,-55.611,76,85,92
-17.807,-2.2364,-55.74,93,112,127
-17.804,-1.55,-55.546,42,57,69
-17.796,-2.0889,-55.696,58,81,103
-17.796,-2.0419,-55.678,59,81,103
-17.782,-1.9818,-55.66,53,75,95
-17.781,-1.6448,-55.573,62,78,94
-17.778,-3.038,-56.633,108,155,209
-17.777,-2.3066,-55.73,108,125,141
-17.774,-2.1404,-55.714,58,77,95
-17.772,-1.9068,-55.64,56,69,80
-17.768,-1.5001,-55.529,30,46,55
-17.747,-2.4026,-55.769,132,145,164
-17.74,-1.7242,-55.598,66,77,87
-17.738,-2.2429,-55.706,100,116,127
-17.73,-2.2829,-55.698,96,110,119
-17.725,-2.3139,-55.7,106,121,128
-17.705,-1.5641,-55.548,51,72,88
-17.703,-2.1838,-55.697,22,29,38
-17.693,-1.9927,-55.665,43,54,64
-17.686,-1.6662,-55.583,71,91,104
-17.686,-1.8005,-55.619,81,91,95
-17.68,-2.3698,-55.729,117,127,139
-17.68,-2.3036,-55.685,63,73,80
-17.667,-2.1078,-55.681,32,44,55
-17.661,-2.2399,-55.676,46,56,64
-17.64,-1.6202,-55.568,56,75,95
-17.622,-2.1612,-55.67,40,57,73
-17.608,-2.1165,-55.667,37,53,72
-17.602,-2.3358,-55.687,80,91,102
-17.602,-2.9826,-56.377,107,154,209
-17.601,-2.0639,-55.648,49,64,80
-17.601,-2.2129,-55.645,65,88,110
-17.6,-1.9926,-55.651,36,49,63
-17.599,-1.5471,-55.511,71,88,101
-17.598,-2.2655,-55.646,64,82,97
-17.598,-2.3079,-55.658,69,82,94
-17.593,-2.1415,-55.662,56,76,101
-17.592,-2.1201,-55.657,57,75,97
-17.585,-2.1691,-55.647,74,98,121
-17.581,-1.9436,-55.652,48,62,72
-17.581,-2.144,-55.649,72,96,119
-17.581,-2.2385,-55.63,78,99,121
-17.579,-2.2605,-55.631,86,102,126
-17.576,-2.1572,-55.638,87,108,131
-17.576,-2.1211,-55.632,88,107,129
-17.576,-1.6801,-55.57,89,101,113
-17.565,-2.0091,-55.635,68,85,103
-17.562,-1.857,-55.635,81,89,95
-17.56,-2.1207,-55.616,105,127,152
-17.559,-2.3016,-55.653,81,96,111
-17.558,-2.0942,-55.609,110,131,156
-17.557,-2.261,-55.638,89,106,127
-17.555,-1.9683,-55.644,50,65,80
-17.551,-2.0571,-55.616,93,115,138
-17.548,-2.1883,-55.635,90,112,133
-17.534,-2.0116,-55.618,75,101,127
-17.531,-2.3729,-55.707,99,118,131
-17.53,-1.5977,-55.51,96,109,119
-17.528,-2.0663,-55.61,73,101,126
-17.523,-1.9837,-55.628,65,87,110
-17.518,-2.1053,-55.616,74,100,124
-17.51,-1.6434,-55.53,106,119,129
-17.501,-1.5217,-55.465,65,76,85
-17.496,-1.9296,-55.646,62,76,89
-17.493,-2.0449,-55.612,66,94,119
-17.469,-1.5977,-55.496,104,117,127
-17.467,-2.1972,-55.647,60,83,105
-17.463,-1.8712,-55.651,87,93,95
-17.462,-2.3033,-55.683,72,96,118
-17.459,-2.0691,-55.618,63,89,116
-17.458,-2.4846,-55.804,112,135,159
-17.454,-1.6737,-55.543,109,121,132
-17.451,-2.1243,-55.63,61,86,111
-17.447,-1.9873,-55.624,65,92,118
-17.435,-1.7965,-55.62,101,108,116
-17.418,-1.5269,-55.459,77,88,95
-17.416,-1.9082,-55.663,71,80,86
-17.412,-2.2449,-55.67,56,81,104
-17.41,-2.0693,-55.625,69,96,125
-17.409,-2.031,-55.618,70,97,127
-17.409,-1.9445,-55.645,62,83,101
-17.401,-3.1378,-56.628,107,155,212
-17.4,-2.9953,-56.319,107,154,207
-17.396,-2.1744,-55.654,62,86,111
-17.396,-1.8763,-55.667,90,94,95
-17.388,-1.6084,-55.5,100,113,124
-17.386,-2.1302,-55.64,66,93,119
-17.386,-2.2187,-55.669,61,86,111
-17.385,-1.9693,-55.632,70,98,126
-17.377,-3.1056,-56.436,106,156,213
-17.367,-2.3725,-55.735,65,90,112
-17.36,-2.0437,-55.618,72,99,127
-17.359,-1.9269,-55.667,64,77,87
-17.357,-2.0758,-55.626,71,97,126
-17.352,-1.7254,-55.562,112,122,130
-17.349,-1.8058,-55.619,104,112,116
-17.348,-2.0252,-55.614,72,101,128
-17.346,-1.9032,-55.683,86,91,93
-17.344,-2.2572,-55.69,62,88,113
-17.338,-1.9969,-55.623,72,100,127
-17.335,-1.8723,-55.665,90,95,95
-17.331,-2.1691,-55.659,66,94,120
-17.33,-2.0343,-55.613,71,99,127
-17.328,-1.4817,-55.455,46,53,59
-17.326,-2.2905,-55.703,64,92,118
-17.326,-2.0252,-55.614,70,99,127
-17.32,-1.9544,-55.648,65,92,112
-17.318,-2.2177,-55.681,65,93,119
-17.313,-2.2436,-55.692,62,89,117
-17.311,-1.907,-55.697,96,100,103
-17.307,-2.2481,-55.694,61,88,117
-17.307,-2.2565,-55.699,61,88,116
-17.307,-2.0473,-55.616,71,98,127
-17.305,-2.2639,-55.703,63,90,118
-17.305,-1.919,-55.676,75,84,88
-17.303,-2.2485,-55.693,62,89,116
-17.301,-2.2484,-55.695,62,89,117
-17.299,-3.148,-56.525,107,156,213
-17.296,-2.2102,-55.677,70,95,120
-17.295,-2.3851,-55.734,68,92,117
-17.295,-2.1135,-55.634,71,97,125
-17.294,-1.63,-55.501,98,109,119
-17.292,-2.2676,-55.706,68,96,121
-17.284,-2.2234,-55.685,70,96,121
-17.28,-2.32,-55.717,71,97,121
-17.279,-1.8279,-55.607,96,102,104
-17.276,-1.9003,-55.65,78,87,92
-17.275,-2.0553,-55.612,73,99,127
-17.272,-1.9264,-55.658,66,78,87
-17.266,-2.2447,-55.697,73,98,125
-17.263,-2.197,-55.668,72,96,121
-17.262,-2.2128,-55.677,74,97,124
-17.254,-2.2387,-55.694,77,100,127
-17.251,-2.029,-55.611,72,100,127
-17.25,-2.1725,-55.658,75,100,126
-17.247,-1.961,-55.623,72,95,116
-17.245,-2.2535,-55.704,76,100,126
-17.243,-1.8876,-55.618,85,94,100
-17.241,-2.2089,-55.677,77,101,126
-17.24,-1.7387,-55.538,108,118,127
-17.236,-2.2369,-55.694,77,101,127
-17.236,-2.0685,-55.611,75,101,127
-17.233,-2.2633,-55.704,76,101,127
-17.221,-3.1887,-56.698,107,156,213
-17.218,-2.0227,-55.604,75,103,130
-17.216,-2.1267,-55.634,78,103,127
-17.215,-1.4783,-55.469,29,36,40
-17.212,-2.0484,-55.601,75,103,130
-17.209,-2.203,-55.674,81,104,127
-17.206,-1.5286,-55.468,56,65,72
-17.205,-2.3703,-55.702,87,104,125
-17.205,-2.3981,-55.658,173,186,191
-17.205,-2.1616,-55.653,80,105,129
-17.2,-1.6277,-55.486,89,99,108
-17.2,-2.3183,-55.708,78,101,127
-17.199,-2.0382,-55.598,74,103,129
-17.198,-2.0153,-55.6,73,101,128
-17.19,-2.1527,-55.646,81,106,129
-17.19,-2.167,-55.654,82,106,130
-17.188,-1.5206,-55.472,44,53,60
-17.186,-2.2415,-55.686,83,106,129
-17.185,-1.8682,-55.571,87,96,105
-17.176,-2.0709,-55.602,72,99,126
-17.171,-2.3398,-55.699,78,100,124
-17.156,-2.1684,-55.642,84,105,127
-17.152,-2.2527,-55.675,91,110,129
-17.152,-2.3158,-55.686,89,104,124
-17.141,-1.9894,-55.578,68,93,116
-17.134,-1.7649,-55.512,93,100,109
-17.128,-1.5646,-55.475,57,70,80
-17.128,-2.2073,-55.639,119,130,143
-17.127,-2.266,-55.657,110,122,136
-17.117,-2.3032,-55.639,129,134,143
-17.113,-2.1663,-55.617,103,117,131
-17.107,-2.2226,-55.613,177,178,185
-17.103,-2.1828,-55.608,161,165,175
-17.092,-2.1994,-55.594,179,186,191
-17.091,-3.212,-56.675,107,156,213
-17.09,-2.2758,-55.602,181,188,191
-17.09,-2.235,-55.59,194,203,207
-17.089,-2.3047,-55.597,149,162,169
-17.074,-2.3304,-55.598,136,149,157
-17.073,-1.5493,-55.486,50,66,80
-17.071,-1.6344,-55.474,54,69,81
-17.061,-2.2352,-55.576,145,162,171
-17.058,-3.2135,-56.698,107,156,213
-17.056,-1.6982,-55.476,65,75,80
-17.054,-2.1205,-55.568,83,102,119
-17.044,-1.477,-55.479,37,50,62
-17.033,-1.5713,-55.486,59,76,94
-17.025,-1.6276,-55.472,59,74,87
-17.021,-1.9162,-55.512,73,88,101
-16.993,-1.599,-55.479,42,62,80
-16.99,-1.5155,-55.474,28,44,58
-16.989,-1.694,-55.457,60,67,72
-16.98,-1.6435,-55.467,38,59,76
-16.975,-2.23,-55.539,98,118,129
-16.955,-1.6783,-55.454,48,61,72
-16.954,-1.6442,-55.46,32,48,64
-16.952,-1.5773,-55.462,41,58,72
-16.945,-2.2131,-55.515,88,99,109
-16.936,-2.277,-55.524,97,108,117
-16.935,-1.7551,-55.449,80,91,100
-16.932,-2.0547,-55.519,85,103,121
-16.927,-2.1689,-55.525,88,107,126
-16.922,-2.1136,-55.523,92,112,130
-16.922,-1.6334,-55.45,44,54,64
-16.921,-1.5329,-55.44,73,89,101
-16.915,-2.2041,-55.515,102,122,140
-16.912,-1.6536,-55.432,78,89,96
-16.912,-2.2788,-55.515,84,95,103
-16.897,-1.596,-55.427,95,107,119
-16.895,-2.0183,-55.495,85,104,125
-16.888,-2.2429,-55.508,105,123,139
-16.887,-1.5193,-55.416,87,98,109
-16.887,-1.9625,-55.475,78,99,119
-16.882,-1.8895,-55.449,78,96,111
-16.876,-2.0885,-55.509,99,122,143
-16.875,-2.2505,-55.496,96,112,127
-16.872,-1.5254,-55.402,96,106,117
-16.871,-2.1884,-55.5,100,123,143
-16.865,-2.135,-55.507,99,123,143
-16.865,-1.5231,-55.395,91,100,109
-16.859,-2.2222,-55.493,106,128,147
-16.854,-2.0393,-55.481,70,96,119
-16.849,-2.0677,-55.492,73,98,120
-16.848,-2.1798,-55.487,72,93,111
-16.845,-2.0862,-55.496,76,101,126
-16.843,-2.1124,-55.498,76,100,124
-16.838,-2.147,-55.493,76,99,121
-16.837,-2.0798,-55.481,63,87,111
-16.824,-2.1459,-55.481,59,83,104
-18.49,-1.2754,-55.591,56,59,55
-18.487,-1.2331,-55.586,63,67,68
-18.477,-1.2127,-55.587,62,66,64
-18.458,-1.2273,-55.592,61,64,64
-18.453,-0.70627,-55.557,46,48,46
-18.446,-1.0838,-55.596,64,71,72
-18.446,-0.75291,-55.674,59,63,62
-18.444,-1.2462,-55.598,60,63,62
-18.443,-0.80459,-55.529,36,45,48
-18.439,-1.286,-55.596,56,60,58
-18.434,-0.65417,-55.523,36,40,35
-18.419,-0.74758,-55.506,35,44,48
-18.419,-0.43517,-55.601,43,48,46
-18.414,-0.56344,-55.557,37,42,36
-18.404,-0.6315,-55.511,42,43,35
-18.404,-0.5887,-55.537,46,47,40
-18.402,-1.1072,-55.584,60,71,80
-18.396,-0.23876,-55.607,32,36,36
-18.395,-0.60461,-55.523,45,47,39
-18.388,-1.1837,-55.606,50,57,59
-18.384,-0.6866,-55.495,44,48,44
-18.374,-1.3351,-55.605,54,61,60
-18.369,-0.064859,-55.604,37,41,40
-18.366,-0.27088,-55.603,35,40,40
-18.365,-1.2736,-55.609,61,64,60
-18.364,-0.45526,-55.589,33,37,36
-18.364,0.1095,-55.612,25,30,31
-18.356,-0.61964,-55.513,44,45,36
-18.353,0.10375,-55.607,26,28,31
-18.353,0.181,-55.611,33,36,43
-18.348,0.088869,-55.604,43,46,48
-18.346,-1.3831,-55.604,60,68,72
-18.345,0.18205,-55.608,36,40,46
-18.344,0.30996,-55.592,34,42,47
-18.34,-1.2047,-55.615,56,59,59
-18.34,0.13468,-55.605,48,53,60
-18.339,-0.85872,-55.505,44,58,68
-18.338,0.19053,-55.603,41,46,52
-18.331,-0.45929,-55.624,42,41,50
-18.328,-0.41577,-55.608,49,54,60
-18.327,-1.314,-55.606,63,68,64
-18.326,-0.43591,-55.618,47,48,56
-18.326,-0.42797,-55.618,47,48,56
-18.325,0.24867,-55.585,25,32,36
-18.324,0.048631,-55.586,44,46,42
-18.322,0.13422,-55.592,50,59,64
-18.321,0.16336,-55.593,32,37,43
-18.319,-0.56695,-55.545,41,44,36
-18.318,-0.66606,-55.48,46,47,40
-18.313,-0.96393,-55.543,51,70,84
-18.312,-0.29297,-55.597,33,37,40
-18.311,-0.71258,-55.468,46,50,50
-18.311,-0.4043,-55.607,52,62,69
-18.309,-1.1005,-55.623,48,61,72
-18.308,-0.469,-55.609,60,68,76
-18.308,-0.068089,-55.58,48,52,50
-18.307,-0.61098,-55.524,43,44,34
-18.303,-1.1546,-55.624,43,49,54
-18.302,-1.0611,-55.615,57,70,87
-18.3,0.09187,-55.573,30,32,29
-18.3,-0.36032,-55.596,41,52,56
-18.298,0.21464,-55.576,31,37,43
-18.296,-1.0717,-55.632,56,68,87
-18.296,-0.68625,-55.456,54,56,52
-18.295,-0.23293,-55.584,12,15,16
-18.294,-0.45366,-55.602,56,64,71
-18.291,-0.63852,-55.502,43,44,34
-18.29,-1.0204,-55.582,52,71,87
-18.289,-0.21482,-55.579,12,16,16
-18.284,-0.25478,-55.577,24,28,28
-18.284,-0.12432,-55.572,41,45,43
-18.283,-0.49267,-55.584,45,51,52
-18.281,0.30727,-55.556,40,48,54
-18.279,-1.201,-55.616,61,66,68
-18.278,-1.0705,-55.628,58,73,92
-18.277,-1.1324,-55.627,53,64,71
-18.277,0.14078,-55.563,36,43,44
-18.273,-0.91959,-55.515,32,48,59
-18.27,0.10326,-55.552,35,40,40
-18.267,-0.18388,-55.565,24,28,27
-18.264,-0.61555,-55.521,42,43,32
-18.261,-0.68839,-55.463,48,49,44
-18.257,-1.3087,-55.593,64,68,69
-18.257,-0.36361,-55.571,48,58,60
-18.257,-1.1107,-55.623,50,65,78
-18.256,-0.090921,-55.555,46,49,48
-18.254,0.12231,-55.543,54,64,69
-18.253,0.061985,-55.543,54,59,58
-18.253,0.18538,-55.554,64,75,84
-18.248,0.22579,-55.543,57,66,72
-18.247,-0.038483,-55.547,56,60,59
-18.244,-1.0597,-55.606,43,61,76
-18.241,-0.33651,-55.55,53,64,72
-18.235,-0.25238,-55.546,35,41,43
-18.235,-0.31452,-55.545,56,64,72
-18.233,0.12079,-55.526,58,67,71
-18.232,0.13014,-55.525,66,80,85
-18.23,-0.95647,-55.537,42,57,68
-18.228,0.13287,-55.52,64,77,80
-18.223,-1.0003,-55.575,43,61,76
-18.223,0.16587,-55.522,62,72,78
-18.222,-0.83625,-55.459,41,53,60
-18.213,-0.75819,-55.447,36,45,48
-18.211,-0.72025,-55.447,38,43,42
-18.211,-0.65421,-55.487,44,45,36
-18.21,-0.32841,-55.535,59,67,77
-18.209,-1.1704,-55.588,48,56,58
-18.208,0.11327,-55.513,50,57,56
-18.206,-0.36032,-55.541,57,64,69
-18.204,-1.0767,-55.592,40,51,63
-18.204,-0.076633,-55.524,48,52,52
-18.203,0.25455,-55.514,52,56,56
-18.201,-0.022299,-55.521,56,60,62
-18.195,-1.031,-55.578,49,64,79
-18.194,-1.4352,-55.563,66,78,87
-18.192,-0.23169,-55.521,34,38,39
-18.192,0.0201,-55.515,54,60,62
-18.188,-0.48197,-55.555,54,61,60
-18.188,-0.16491,-55.518,36,41,42
-18.185,-1.3036,-55.563,60,64,64
-18.184,-1.0941,-55.55,71,84,92
-18.182,0.17317,-55.504,52,59,60
-18.181,-0.6112,-55.51,44,45,35
-18.18,-1.0834,-55.564,64,73,80
-18.18,-1.1161,-55.555,69,78,86
-18.18,0.079807,-55.504,50,57,56
-18.179,-0.90298,-55.479,37,48,55
-18.178,-0.28348,-55.522,51,57,59
-18.177,-0.98584,-55.548,61,74,86
-18.175,-1.1102,-55.545,72,83,87
-18.172,0.12767,-55.5,49,53,54
-18.168,0.29988,-55.503,50,53,55
-18.167,-0.70537,-55.448,37,41,38
-18.166,0.26178,-55.499,53,57,58
-18.161,-1.155,-55.557,63,67,70
-18.16,0.054636,-55.493,54,60,60
-18.159,-1.0226,-55.548,65,77,87
-18.158,-1.1381,-55.544,67,74,79
-18.157,-1.0604,-55.543,67,76,80
-18.156,-1.0468,-55.546,66,76,84
-18.156,-1.087,-55.537,68,78,85
-18.155,-0.050347,-55.497,54,60,62
-18.153,-0.54293,-55.531,52,57,52
-18.153,0.23392,-55.496,53,58,58
-18.153,-0.026532,-55.498,56,61,64
-18.152,-0.96039,-55.516,60,69,77
-18.149,-0.086398,-55.497,51,58,59
-18.147,-0.22077,-55.507,49,54,56
-18.145,-0.62775,-55.499,37,38,29
-18.145,0.13702,-55.495,51,57,56
-18.144,-0.03922,-55.492,56,61,63
-18.143,0.085287,-55.496,51,57,56
-18.142,0.02847,-55.49,58,63,64
-18.141,-0.43809,-55.528,62,66,64
-18.139,0.1613,-55.492,52,58,58
-18.138,-0.81856,-55.432,33,43,46
-18.137,-0.48442,-55.531,61,64,63
-18.136,-0.11564,-55.49,49,54,58
-18.136,-0.98528,-55.522,66,77,85
-18.135,-1.3605,-55.531,59,67,72
-18.135,0.15254,-55.494,52,59,59
-18.132,-1.1275,-55.527,66,74,78
-18.132,-0.043056,-55.489,57,63,64
-18.131,-0.62185,-55.494,40,41,30
-18.129,0.16106,-55.492,53,59,59
-18.129,-0.1603,-55.497,52,59,62
-18.128,-1.0288,-55.519,64,73,79
-18.127,0.25778,-55.491,57,61,60
-18.126,0.15752,-55.493,53,59,59
-18.125,-0.97108,-55.499,59,67,72
-18.125,-0.64993,-55.472,37,38,31
-18.125,0.045934,-55.489,57,62,64
-18.125,-0.63397,-55.481,35,37,29
-18.121,0.017563,-55.485,58,64,68
-18.12,-0.48199,-55.524,64,65,64
-18.12,0.16265,-55.49,54,60,60
-18.119,-0.010686,-55.487,58,64,68
-18.118,0.13528,-55.494,53,59,58
-18.118,-0.62296,-55.483,37,38,29
-18.115,0.040662,-55.488,56,61,64
-18.114,-1.2618,-55.54,58,62,59
-18.112,0.033659,-55.487,57,61,64
-18.112,-0.363,-55.514,64,69,72
-18.112,-0.62941,-55.471,35,36,28
-18.109,0.043563,-55.488,56,60,64
-18.108,-0.49708,-55.523,62,65,63
-18.107,-1.4122,-55.523,64,74,85
-18.107,-0.51327,-55.528,60,64,62
-18.107,0.013939,-55.484,58,64,68
-18.106,-1.4683,-55.537,70,83,94
-18.105,-0.072627,-55.488,57,63,64
-18.105,0.033225,-55.487,57,61,64
-18.103,0.15078,-55.49,54,60,59
-18.101,-1.1064,-55.508,62,70,72
-18.098,0.082496,-55.492,54,60,60
-18.097,-0.27708,-55.503,60,67,70
-18.096,0.12683,-55.492,54,60,60
-18.095,0.025159,-55.485,58,62,64
-18.094,0.010439,-55.483,59,64,68
-18.094,-1.3384,-55.517,51,61,64
-18.092,-0.64399,-55.457,36,37,30
-18.092,0.26994,-55.486,58,62,63
-18.09,-0.88326,-55.429,30,37,40
-18.09,0.19658,-55.489,56,61,62
-18.09,-1.1712,-55.526,64,66,64
-18.088,-0.20762,-55.496,60,66,70
-18.087,-1.0666,-55.496,58,68,72
-18.086,-0.70744,-55.431,34,36,34
-18.086,-0.62681,-55.458,38,38,31
-18.085,-0.60663,-55.466,38,38,29
-18.085,0.002704,-55.484,59,64,68
-18.084,-0.43052,-55.51,67,71,72
-18.084,-0.47858,-55.511,67,71,70
-18.083,0.16189,-55.487,56,61,62
-18.08,0.24809,-55.486,57,62,63
-18.079,0.13655,-55.488,56,60,60
-18.079,-0.5965,-55.484,46,47,36
-18.079,-1.3866,-55.512,54,64,72
-18.078,-0.68963,-55.439,43,44,39
-18.076,-0.144,-55.493,59,65,68
-18.075,-1.1306,-55.507,60,65,69
-18.073,-0.49547,-55.513,62,65,63
-18.073,0.038911,-55.485,59,64,68
-18.071,-0.032161,-55.486,59,64,68
-18.07,-0.73815,-55.418,24,30,30
-18.069,-0.98885,-55.467,48,58,62
-18.067,0.015891,-55.483,59,64,68
-18.066,-0.37474,-55.504,66,73,77
-18.065,-0.81954,-55.404,25,32,34
-18.065,-0.51259,-55.516,63,66,64
-18.064,-0.70328,-55.427,37,40,36
-18.063,0.030234,-55.484,59,64,64
-18.063,-0.71114,-55.423,29,32,29
-18.062,-1.3207,-55.519,46,51,52
-18.061,0.099001,-55.486,59,63,64
-18.057,0.03936,-55.483,58,63,64
-18.057,-0.35563,-55.502,66,74,78
-18.056,-0.39031,-55.503,67,74,78
-18.056,-0.6629,-55.44,36,37,31
-18.055,-0.37836,-55.503,66,74,78
-18.054,-0.49293,-55.51,66,70,68
-18.052,0.028263,-55.483,58,64,64
-18.051,-0.84971,-55.401,23,28,30
-18.049,-1.365,-55.51,42,49,56
-18.048,-0.1098,-55.492,59,66,68
-18.048,-0.44793,-55.504,69,74,72
-18.043,-0.62613,-55.456,41,41,31
-18.043,0.12251,-55.484,57,62,63
-18.042,-0.49736,-55.509,66,69,68
-18.038,-0.20038,-55.492,62,68,72
-18.037,-1.0896,-55.484,52,62,64
-18.034,-0.24309,-55.492,64,71,72
-18.034,0.012268,-55.485,59,65,68
-18.033,-1.0662,-55.473,44,51,55
-18.032,-1.2799,-55.522,54,58,52
-18.031,0.042955,-55.481,61,65,69
-18.027,-0.53782,-55.498,59,62,56
-18.026,-0.90087,-55.419,35,42,44
-18.025,-1.1787,-55.515,64,66,64
-18.024,-0.4834,-55.501,67,71,71
-18.024,-0.13644,-55.489,60,67,69
-18.023,-1.2211,-55.523,66,68,64
-18.02,0.30497,-55.48,54,61,60
-18.018,-0.41189,-55.494,70,75,78
-18.018,-0.31883,-55.494,66,74,78
-18.017,-0.058148,-55.491,59,65,68
-18.015,0.032629,-55.482,62,68,72
-18.014,-1.05,-55.464,42,48,51
-18.01,-1.0677,-55.467,43,48,52
-18.01,-0.21646,-55.486,64,70,72
-18.008,-0.78556,-55.396,28,33,36
-18.005,-0.10957,-55.489,60,66,69
-18.004,-0.35939,-55.488,68,74,79
-18.001,-1.333,-55.514,32,35,36
-18,-0.11466,-55.486,59,65,68
-17.998,0.029484,-55.485,61,67,71
-17.994,0.090001,-55.478,54,61,64
-17.993,-1.1263,-55.496,56,61,63
-17.992,0.12446,-55.477,54,60,62
-17.99,-0.33749,-55.489,66,72,77
-17.989,-0.45934,-55.488,67,70,72
-17.989,-0.83783,-55.398,35,43,46
-17.988,-0.36794,-55.486,66,72,77
-17.988,-0.18581,-55.48,57,63,64
-17.984,-1.4387,-55.517,46,53,60
-17.983,0.16065,-55.485,53,60,60
-17.983,-0.25632,-55.493,61,68,71
-17.982,0.11551,-55.474,54,61,63
-17.982,-0.4097,-55.486,67,72,72
-17.981,0.018163,-55.491,60,66,70
-17.981,-0.206,-55.486,59,65,68
-17.981,-0.50362,-55.489,62,64,62
-17.977,0.038425,-55.485,60,66,69
-17.976,-0.11541,-55.482,54,62,64
-17.975,-0.085018,-55.49,57,64,64
-17.974,0.24335,-55.484,51,58,60
-17.972,-1.2039,-55.517,64,68,68
-17.972,-1.0075,-55.452,53,62,64
-17.968,-0.45966,-55.483,66,69,70
-17.966,-0.72279,-55.401,24,29,28
-17.965,0.10651,-55.479,56,62,64
-17.965,-0.28662,-55.495,64,73,76
-17.965,-0.14747,-55.475,53,60,60
-17.965,0.041102,-55.487,59,66,68
-17.963,0.017447,-55.494,59,66,69
-17.962,-0.4839,-55.482,62,64,63
-17.961,-0.64984,-55.428,33,34,30
-17.96,0.059086,-55.484,59,65,68
-17.957,0.082514,-55.48,57,64,64
-17.955,0.034459,-55.492,60,65,68
-17.954,-0.89833,-55.42,40,48,52
-17.953,0.30756,-55.479,48,54,55
-17.946,-0.57932,-55.468,50,51,44
-17.945,-0.53584,-55.48,57,59,55
-17.944,0.006752,-55.498,59,65,64
-17.942,-0.47083,-55.483,60,64,63
-17.941,-0.095477,-55.486,53,60,60
-17.94,-0.16051,-55.484,51,59,59
-17.938,-0.36309,-55.493,57,63,64
-17.938,0.087429,-55.483,57,62,64
-17.937,0.077078,-55.485,58,63,64
-17.935,-1.2505,-55.516,48,51,47
-17.933,-0.94833,-55.433,53,63,69
-17.928,-0.55218,-55.479,58,59,54
-17.927,-0.96147,-55.44,58,66,72
-17.923,-1.3309,-55.508,26,30,27
-17.922,-1.1596,-55.508,60,65,64
-17.92,-1.0637,-55.474,58,66,70
-17.913,-0.20441,-55.5,47,52,52
-17.91,-0.77521,-55.403,32,40,43
-17.908,-1.009,-55.459,56,65,71
-17.906,-0.050461,-55.493,57,62,63
-17.904,-0.60597,-55.441,44,44,36
-17.903,-0.68133,-55.406,41,44,40
-17.903,-0.026943,-55.499,59,64,64
-17.903,-0.11278,-55.496,53,59,58
-17.901,-1.19,-55.515,59,64,63
-17.898,-1.1085,-55.494,56,63,64
-17.898,-0.27761,-55.505,44,49,50
-17.897,0.090236,-55.494,56,60,60
-17.897,0.035271,-55.5,60,64,64
-17.895,-0.026514,-55.49,58,63,64
-17.895,-0.5562,-55.482,56,58,52
-17.89,-0.019302,-55.493,60,64,64
-17.881,-0.52768,-55.487,48,52,50
-17.881,-0.024565,-55.494,59,64,64
-17.877,-0.014567,-55.494,62,65,64
-17.872,-1.3746,-55.503,23,29,30
-17.87,-1.0292,-55.472,50,61,68
-17.87,-0.92341,-55.437,41,50,58
-17.87,-0.016138,-55.5,61,65,64
-17.869,-0.58415,-55.452,51,52,46
-17.866,-0.56241,-55.472,50,53,48
-17.865,-0.45375,-55.492,41,48,48
-17.865,-0.54542,-55.485,46,48,44
-17.86,-0.022699,-55.501,61,64,64
-17.86,-0.62139,-55.424,47,47,40
-17.857,-0.057001,-55.507,59,63,62
-17.856,-1.0738,-55.49,51,61,64
-17.855,-0.32693,-55.506,33,42,43
-17.853,-1.1363,-55.508,54,62,64
-17.851,0.20099,-55.493,48,56,56
-17.84,-1.3163,-55.507,35,40,36
-17.839,-0.12283,-55.518,49,53,52
-17.834,-0.67531,-55.403,46,48,47
-17.827,-1.2329,-55.52,56,59,54
-17.819,0.12821,-55.501,32,36,36
-17.819,-0.50618,-55.483,34,40,38
-17.817,-0.4514,-55.496,26,34,36
-17.816,-0.028926,-55.521,60,63,64
-17.813,-0.22239,-55.523,31,35,36
-17.807,-1.2962,-55.514,51,53,50
-17.799,-0.053538,-55.53,59,62,63
-17.799,-0.5734,-55.445,46,48,40
-17.794,0.015063,-55.513,57,60,60
-17.792,0.28725,-55.497,47,54,60
-17.79,-1.0182,-55.488,41,52,63
-17.785,-0.036503,-55.533,59,62,63
-17.784,0.088644,-55.506,42,45,43
-17.784,-0.63003,-55.415,41,43,38
-17.781,-0.04807,-55.535,58,61,60
-17.778,-1.3348,-55.508,33,38,38
-17.776,-0.10201,-55.532,48,50,50
-17.769,-0.040958,-55.529,59,62,62
-17.766,-1.2847,-55.518,60,63,59
-17.765,-1.2211,-55.528,63,65,64
-17.757,-0.24718,-55.532,29,37,43
-17.757,-1.1369,-55.52,46,52,55
-17.754,0.24261,-55.496,44,49,54
-17.753,-0.030349,-55.523,60,64,64
-17.751,0.13705,-55.5,32,36,38
-17.75,-0.37485,-55.497,31,40,42
-17.746,-1.1991,-55.529,60,64,63
-17.745,-0.18001,-55.534,31,36,38
-17.742,-0.72073,-55.405,34,41,42
-17.741,-1.4235,-55.492,34,47,54
-17.74,0.068375,-55.508,42,44,40
-17.739,0.18796,-55.495,64,73,80
-17.736,-0.24722,-55.53,23,32,36
-17.733,-0.51694,-55.458,37,42,38
-17.73,0.29016,-55.496,61,66,72
-17.726,-1.3434,-55.498,35,41,40
-17.725,0.094923,-55.502,42,45,42
-17.724,-1.0253,-55.507,42,59,72
-17.721,0.053112,-55.505,41,44,40
-17.718,0.002584,-55.509,57,61,59
-17.716,-0.076513,-55.511,47,50,48
-17.715,-1.2947,-55.512,59,62,59
-17.714,-0.21732,-55.512,24,31,32
-17.712,0.26459,-55.492,68,77,86
-17.71,-0.9669,-55.489,32,45,59
-17.709,0.28758,-55.493,72,84,92
-17.708,0.24834,-55.49,61,67,72
-17.708,-1.2145,-55.517,59,63,60
-17.707,-0.89566,-55.448,29,35,42
-17.707,0.30478,-55.484,62,71,79
-17.706,0.13166,-55.492,54,60,64
-17.702,0.17034,-55.489,65,73,80
-17.701,0.28013,-55.487,72,85,92
-17.701,0.079801,-55.499,47,49,46
-17.7,-0.6026,-55.413,37,40,34
-17.699,0.10557,-55.493,57,64,64
-17.696,-1.0454,-55.509,30,41,52
-17.695,-1.1372,-55.513,33,36,35
-17.695,0.090401,-55.495,57,61,59
-17.694,-0.9919,-55.504,32,48,64
-17.694,0.20686,-55.481,63,73,79
-17.69,0.25716,-55.476,64,75,80
-17.689,0.29829,-55.472,56,66,71
-17.688,0.083315,-55.493,52,58,54
-17.686,0.088953,-55.491,56,62,59
-17.685,0.14583,-55.48,59,67,71
-17.684,0.095154,-55.488,57,64,63
-17.684,0.007256,-55.492,50,54,52
-17.684,0.29988,-55.464,57,65,70
-17.683,-1.2796,-55.506,63,64,60
-17.682,0.28077,-55.462,60,68,72
-17.682,0.068902,-55.487,42,46,43
-17.681,0.10519,-55.481,54,63,63
-17.681,0.23172,-55.466,56,64,69
-17.68,-0.64941,-55.394,37,40,36
-17.68,0.19012,-55.472,60,71,77
-17.68,-0.18381,-55.485,30,34,36
-17.678,0.21171,-55.466,53,63,64
-17.677,0.2534,-55.455,56,65,69
-17.674,0.29201,-55.449,61,67,70
-17.674,0.22236,-55.456,60,67,70
-17.674,-0.28605,-55.47,46,54,60
-17.672,0.20568,-55.456,60,66,69
-17.67,0.14802,-55.463,52,61,64
-17.669,0.08056,-55.47,38,44,40
-17.668,-1.3145,-55.491,40,43,40
-17.668,0.2646,-55.435,57,63,64
-17.668,0.28058,-55.436,57,64,64
-17.668,-0.97542,-55.481,25,32,40
-17.668,0.21844,-55.442,60,67,69
-17.667,0.18756,-55.449,60,67,70
-17.665,0.105,-55.462,49,57,58
-17.665,0.26332,-55.428,50,57,56
-17.665,-0.37295,-55.469,60,69,76
-17.665,0.25425,-55.43,52,60,60
-17.664,0.2353,-55.433,54,62,63
-17.662,-0.35141,-55.458,66,77,86
-17.662,0.13127,-55.45,58,64,64
-17.662,0.18918,-55.435,62,70,72
-17.661,0.30382,-55.432,53,60,60
-17.66,0.15672,-55.442,58,65,64
-17.66,-0.54594,-55.431,44,46,42
-17.66,-0.43738,-55.476,51,61,64
-17.66,0.051025,-55.465,43,46,44
-17.66,-0.48285,-55.459,49,54,56
-17.659,0.21365,-55.428,52,60,60
-17.659,-0.20361,-55.463,32,38,43
-17.658,0.27329,-55.425,50,56,56
-17.658,-1.392,-55.442,38,46,52
-17.657,0.081526,-55.454,46,48,48
-17.655,-1.0595,-55.491,26,31,34
-17.654,-0.33436,-55.452,65,76,84
-17.654,0.15706,-55.431,52,60,60
-17.653,-0.13323,-55.459,32,36,36
-17.65,-1.3611,-55.458,31,35,39
-17.649,-0.3694,-55.453,64,71,76
-17.648,0.23977,-55.422,51,58,56
-17.648,-0.41004,-55.472,58,67,72
-17.646,0.17802,-55.424,52,59,60
-17.645,0.10102,-55.44,52,58,59
-17.645,-0.30133,-55.448,57,64,69
-17.639,-0.3529,-55.449,63,70,72
-17.639,-0.032116,-55.458,49,54,54
-17.639,-0.096721,-55.449,43,47,46
-17.638,-0.39572,-55.464,64,74,79
-17.634,-0.11939,-55.444,35,40,39
-17.63,-1.3772,-55.426,47,51,56
-17.629,-0.58125,-55.403,42,43,35
-17.628,-1.4073,-55.434,47,56,63
-17.627,0.14848,-55.425,52,59,60
-17.626,-0.21902,-55.44,40,44,44
-17.625,-0.095675,-55.444,44,48,47
-17.621,-0.14116,-55.438,36,40,40
-17.619,-0.30568,-55.443,53,60,60
-17.617,-1.3909,-55.418,52,59,64
-17.615,-0.17264,-55.429,42,44,44
-17.613,0.038583,-55.441,53,60,60
-17.612,-0.79016,-55.405,37,44,46
-17.612,-1.3685,-55.43,40,44,47
-17.609,-1.1277,-55.48,46,49,48
-17.609,0.20392,-55.421,50,57,56
-17.607,-0.65108,-55.384,38,41,36
-17.606,-1.2439,-55.486,56,58,52
-17.601,-0.37169,-55.454,62,68,70
-17.6,-0.15122,-55.43,50,52,54
-17.597,0.11027,-55.432,51,57,58
-17.595,-0.53215,-55.42,53,56,51
-17.594,-0.003488,-55.447,53,59,60
-17.591,-0.18507,-55.433,46,48,48
-17.59,-1.3759,-55.418,48,53,58
-17.588,-0.58072,-55.385,44,44,35
-17.588,-0.45538,-55.458,61,66,64
-17.587,-0.26424,-55.442,52,57,58
-17.586,0.054565,-55.441,52,58,60
-17.583,-1.3994,-55.419,52,62,69
-17.581,-0.088575,-55.445,50,54,56
-17.581,-0.14525,-55.436,53,59,59
-17.58,-1.3189,-55.46,32,35,35
-17.576,-0.94341,-55.44,45,50,52
-17.575,0.24472,-55.418,50,54,54
-17.573,-1.3556,-55.434,32,36,39
-17.57,0.21271,-55.425,53,58,58
-17.566,0.17853,-55.43,52,57,58
-17.565,-0.008189,-55.452,53,59,60
-17.561,-0.59754,-55.369,41,40,31
-17.56,-0.57424,-55.375,51,52,44
-17.56,0.20505,-55.43,56,59,60
-17.558,-1.4474,-55.444,48,59,64
-17.556,-0.40456,-55.46,65,70,71
-17.555,0.21758,-55.429,57,61,60
-17.554,0.13697,-55.435,54,59,59
-17.548,0.22618,-55.424,56,60,60
-17.545,-0.16526,-55.441,51,57,58
-17.541,-0.09251,-55.448,52,58,58
-17.541,-0.055576,-55.451,54,60,60
-17.539,0.1176,-55.44,51,57,59
-17.538,0.22272,-55.428,57,62,63
-17.538,0.2103,-55.429,56,61,60
-17.531,-0.40136,-55.462,68,73,72
-17.53,0.15967,-55.433,57,62,62
-17.528,-0.49676,-55.433,62,64,60
-17.527,-1.1448,-55.468,56,61,60
-17.527,-0.53031,-55.404,59,61,54
-17.527,0.061797,-55.452,59,64,64
-17.525,-0.4376,-55.462,64,68,69
-17.522,-0.33687,-55.447,64,69,71
-17.522,-0.56829,-55.375,48,48,40
-17.52,0.000548,-55.453,57,62,64
-17.52,0.25214,-55.41,51,56,54
-17.519,-1.2079,-55.471,63,65,62
-17.516,-0.45925,-55.457,63,65,64
-17.511,-1.0486,-55.447,64,71,72
-17.509,0.1547,-55.429,56,61,60
-17.507,-0.42591,-55.459,66,71,72
-17.505,0.085946,-55.445,61,65,68
-17.504,0.048696,-55.453,58,64,64
-17.503,-0.44879,-55.462,64,68,69
-17.503,-0.62851,-55.365,40,41,34
-17.499,0.18578,-55.421,53,59,59
-17.497,-1.3372,-55.439,42,48,50
-17.495,-0.46513,-55.448,62,65,63
-17.495,-0.98811,-55.429,69,80,84
-17.492,-0.49908,-55.42,63,65,62
-17.491,0.11524,-55.429,56,61,62
-17.49,-1.469,-55.437,31,38,44
-17.49,-1.3887,-55.421,48,57,63
-17.489,-0.076757,-55.439,57,62,63
-17.486,-0.45109,-55.448,63,67,64
-17.485,0.16557,-55.416,53,59,59
-17.484,0.075747,-55.437,59,64,64
-17.481,-0.42548,-55.45,66,71,70
-17.481,-0.40033,-55.444,68,72,71
-17.48,0.025304,-55.439,57,63,64
-17.473,-1.2816,-55.459,51,56,52
-17.473,-0.42931,-55.442,66,70,69
-17.472,0.20001,-55.402,52,58,58
-17.469,-0.91726,-55.41,51,60,64
-17.467,0.14218,-55.409,52,58,59
-17.466,-0.22536,-55.431,59,64,64
-17.466,-0.46137,-55.426,64,66,64
-17.463,-0.57789,-55.367,43,44,35
-17.46,-0.41768,-55.429,65,69,68
-17.458,0.26552,-55.394,52,57,56
-17.447,-0.78839,-55.385,41,47,48
-17.446,-0.35364,-55.425,64,68,69
-17.446,-1.0483,-55.437,65,74,79
-17.445,0.19608,-55.391,53,58,59
-17.445,0.14951,-55.396,53,59,60
-17.445,-1.4517,-55.431,40,48,54
-17.443,0.23544,-55.391,54,59,60
-17.442,0.077525,-55.409,53,59,60
-17.442,0.17381,-55.391,53,59,60
-17.44,-0.5188,-55.395,60,61,54
-17.439,0.089235,-55.398,52,57,58
-17.438,-0.95904,-55.412,63,71,77
-17.437,0.1053,-55.396,53,58,59
-17.437,0.26707,-55.389,56,60,59
-17.435,0.2822,-55.389,56,59,59
-17.435,-1.4038,-55.414,48,58,64
-17.434,-0.43337,-55.413,62,64,62
-17.431,-0.030434,-55.417,56,61,62
-17.43,-1.0012,-55.418,63,71,77
-17.427,0.21576,-55.391,56,60,60
-17.427,0.1022,-55.397,53,59,60
-17.426,0.18132,-55.392,56,61,62
-17.426,0.28606,-55.389,56,60,60
-17.424,0.29369,-55.393,54,59,59
-17.423,-0.56776,-55.371,45,46,36
-17.421,0.13923,-55.394,57,61,63
-17.42,0.29495,-55.39,56,60,60
-17.419,0.2533,-55.392,57,61,62
-17.414,-0.079643,-55.416,58,63,64
-17.41,0.29177,-55.393,57,61,62
-17.406,-0.15808,-55.418,58,64,64
-17.403,-1.3701,-55.436,43,49,52
-17.403,0.28171,-55.394,59,63,64
-17.4,-1.4068,-55.422,44,52,59
-17.398,0.005151,-55.403,57,62,64
-17.393,-0.63117,-55.365,36,37,32
-17.391,-1.1553,-55.454,57,63,62
-17.389,-0.45367,-55.403,63,64,62
-17.388,-1.0508,-55.426,57,65,70
-17.388,0.018541,-55.4,57,62,64
-17.384,-0.006062,-55.4,58,64,64
-17.383,0.12318,-55.4,56,61,63
-17.381,-1.0015,-55.408,57,66,72
-17.38,-0.93573,-55.4,58,66,72
-17.38,-0.50067,-55.402,63,64,60
-17.379,-0.38416,-55.409,64,68,69
-17.374,-0.035077,-55.405,58,63,64
-17.373,-0.55343,-55.382,52,53,46
-17.373,0.19208,-55.398,58,63,64
-17.372,-0.27346,-55.412,61,66,68
-17.368,-0.008363,-55.401,58,63,64
-17.367,0.067422,-55.402,54,60,63
-17.366,0.016862,-55.4,56,62,64
-17.363,-1.4098,-55.43,36,46,51
-17.362,-0.53499,-55.401,63,64,58
-17.36,-1.0618,-55.427,56,64,64
-17.359,-1.1053,-55.446,56,63,64
-17.356,0.29038,-55.402,58,63,64
-17.354,-0.094037,-55.409,56,63,64
-17.338,-1.1258,-55.458,58,64,64
-17.337,-1.0005,-55.409,65,74,80
-17.336,-1.1124,-55.451,59,65,64
-17.333,-1.0916,-55.441,59,66,69
-17.331,-1.1345,-55.461,57,63,63
-17.327,-0.52706,-55.396,64,64,59
-17.325,-0.50445,-55.404,65,67,63
-17.325,-1.1419,-55.469,56,62,60
-17.323,-0.18191,-55.408,56,63,64
-17.317,0.067312,-55.402,53,60,62
-17.314,-1.0337,-55.417,64,73,78
-17.31,-0.33744,-55.406,64,67,69
-17.309,-0.97097,-55.403,65,74,78
-17.307,-1.1246,-55.459,60,64,64
-17.305,-1.14,-55.468,57,62,62
-17.303,-1.0811,-55.437,63,70,72
-17.302,-0.59027,-55.365,42,43,35
-17.301,-0.42948,-55.405,58,61,59
-17.295,-0.53502,-55.379,56,58,51
-17.294,-1.3483,-55.46,32,36,36
-17.284,-1.0274,-55.42,64,73,78
-17.281,-0.92006,-55.397,53,63,64
-17.27,-0.54431,-55.366,48,49,42
-17.267,0.29236,-55.41,57,62,64
-17.261,0.014482,-55.401,52,59,60
-17.259,-1.1172,-55.454,61,66,68
-17.255,-0.48531,-55.394,56,58,54
-17.251,0.19651,-55.405,52,59,60
-17.248,-0.13303,-55.403,42,48,48
-17.246,-0.24818,-55.407,45,49,52
-17.233,-0.5874,-55.361,40,42,34
-17.224,-0.5244,-55.372,49,51,46
-17.22,-1.0074,-55.417,61,69,72
-17.217,-0.74087,-55.369,38,45,46
-17.18,-0.9403,-55.4,58,66,72
-17.175,-0.17241,-55.404,30,34,36
-17.172,-0.41671,-55.398,29,32,31
-17.158,-1.0224,-55.423,61,68,72
-17.158,0.28251,-55.412,47,52,58
-17.15,-1.4442,-55.477,35,45,48
-17.15,-0.32335,-55.404,25,30,30
-17.148,-0.58892,-55.359,41,43,38
-17.144,-0.96996,-55.405,65,73,80
-17.143,-1.2342,-55.459,48,52,51
-17.142,0.20059,-55.405,58,64,70
-17.142,-1.0999,-55.442,57,63,63
-17.139,-0.67371,-55.355,40,44,43
-17.138,0.16625,-55.398,56,61,64
-17.136,-0.9365,-55.4,59,68,76
-17.132,0.25003,-55.405,47,52,59
-17.126,-0.098373,-55.397,38,43,44
-17.124,-0.46845,-55.379,38,41,38
-17.11,-0.21429,-55.403,32,37,40
-17.107,0.21799,-55.402,40,48,54
-17.106,0.071726,-55.382,53,59,60
-17.101,-1.0181,-55.424,59,67,72
-17.099,0.29669,-55.406,37,46,50
-17.098,0.30856,-55.414,44,54,60
-17.094,-1.0905,-55.442,61,65,64
-17.083,-0.90983,-55.393,48,59,64
-17.08,0.16183,-55.384,45,48,52
-17.078,-0.26103,-55.402,28,32,32
-17.077,0.26536,-55.387,36,44,48
-17.075,0.21174,-55.383,41,48,52
-17.071,-0.18211,-55.4,29,32,32
-17.068,-1.1062,-55.44,61,64,64
-17.066,-0.19888,-55.404,30,32,32
-17.064,-1.0237,-55.424,65,73,80
-17.06,-0.72338,-55.356,38,45,47
-17.06,0.27333,-55.356,84,100,111
-17.058,0.27842,-55.353,85,102,111
-17.058,0.28528,-55.357,85,101,111
-17.057,0.2779,-55.361,71,86,95
-17.056,0.27347,-55.353,87,104,117
-17.053,0.30643,-55.363,80,96,103
-17.053,-0.96949,-55.405,62,72,80
-17.051,0.28345,-55.35,84,100,111
-17.05,0.30145,-55.353,84,100,111
-17.048,-0.29901,-55.394,24,29,28
-17.046,-0.37377,-55.386,29,32,32
-17.045,0.2685,-55.353,77,94,103
-17.045,-0.94763,-55.398,59,68,78
-17.045,-1.0623,-55.43,67,74,78
-17.045,0.15045,-55.369,50,57,60
-17.043,0.27751,-55.349,76,93,103
-17.031,0.30636,-55.347,66,81,87
-17.029,-1.0072,-55.411,65,75,84
-17.028,-0.20858,-55.384,41,43,40
-17.028,-0.91747,-55.387,53,64,72
-17.026,-1.1127,-55.429,53,60,60
-17.025,-0.52602,-55.354,46,48,44
-17.025,-0.42544,-55.375,32,35,35
-17.018,-1.0398,-55.417,62,69,72
-17.018,-0.97323,-55.401,68,81,88
-17.016,0.23463,-55.35,47,56,60
-17.013,-0.017282,-55.361,54,59,58
-17.011,-0.39072,-55.383,32,36,36
-17.004,-1.0044,-55.402,61,70,77
-17.001,0.11156,-55.347,44,48,50
-16.992,-0.38851,-55.371,44,48,48
-16.989,-0.31188,-55.369,45,49,48
-16.983,-0.41626,-55.363,51,54,54
-16.975,-1.3494,-55.439,41,50,58
-16.972,-0.36522,-55.358,51,57,55
-16.966,-1.0827,-55.395,47,52,56
-16.965,-0.90131,-55.363,46,52,56
-16.957,-0.27761,-55.354,57,60,59
-16.956,-0.40195,-55.338,60,63,62
-16.953,-0.46623,-55.34,57,60,58
-16.952,0.028583,-55.331,50,54,55
-16.948,-0.37836,-55.33,63,66,64
-16.947,0.21732,-55.32,59,62,60
-16.935,-0.40204,-55.32,64,67,64
-16.934,-0.34267,-55.333,60,65,64
-16.928,-0.23267,-55.33,61,64,64
-16.927,-0.38353,-55.318,64,68,64
-16.922,-0.44229,-55.326,59,62,60
-16.918,-0.37688,-55.316,64,69,68
-16.901,-0.38647,-55.317,64,68,64
-16.9,-1.387,-55.404,60,69,77
-16.895,-0.49783,-55.32,60,63,59
-16.888,-0.64899,-55.305,56,59,55
-16.875,-1.0711,-55.346,60,64,64
-16.865,-1.3916,-55.383,71,80,86
-16.863,-0.46425,-55.311,64,66,64
-16.851,-0.27471,-55.292,59,63,63
-16.844,-0.3994,-55.306,65,70,69
-16.841,-1.243,-55.344,71,76,78
-16.835,-0.51295,-55.302,61,63,59
-16.826,-0.47733,-55.306,64,66,64
-16.819,-0.99463,-55.309,69,71,69
-16.817,-0.94272,-55.291,85,84,77
-16.815,-0.81415,-55.277,74,74,69
-16.814,-0.45275,-55.286,63,66,64
-16.812,-0.5423,-55.277,52,54,48
-16.811,-0.48317,-55.299,64,67,64
-16.805,-0.56402,-55.256,46,47,40
-16.795,-0.49124,-55.258,50,52,48
-16.795,-0.63565,-55.249,48,50,44
-16.79,-0.59545,-55.25,42,45,40
-16.782,-0.74338,-55.249,48,50,46
-16.778,-0.56748,-55.237,40,42,36
-18.39,1.2755,-55.548,23,24,17
-18.385,1.2175,-55.541,20,22,17
-18.383,1.1966,-55.563,17,20,16
-18.378,1.2964,-55.561,24,25,19
-18.378,1.2423,-55.512,20,21,16
-18.375,0.39857,-55.604,15,18,22
-18.371,0.95879,-55.599,17,18,17
-18.37,0.37731,-55.614,22,26,28
-18.37,1.2894,-55.544,21,22,16
-18.368,1.3007,-55.579,29,30,25
-18.367,0.42044,-55.61,16,20,21
-18.365,0.38019,-55.598,24,29,34
-18.363,0.52146,-55.644,31,32,29
-18.361,0.40201,-55.597,16,21,24
-18.358,1.3947,-55.589,37,40,36
-18.356,1.3511,-55.588,34,36,30
-18.354,0.47418,-55.634,35,38,35
-18.354,0.52932,-55.658,49,52,48
-18.352,1.3102,-55.572,26,28,22
-18.351,1.0418,-55.566,16,18,17
-18.349,1.4509,-55.593,43,46,44
-18.348,1.3556,-55.589,35,36,31
-18.348,1.1532,-55.489,20,23,22
-18.347,1.4897,-55.597,46,48,47
-18.344,1.3339,-55.587,33,34,30
-18.344,0.56728,-55.67,48,49,46
-18.343,1.2665,-55.507,17,18,14
-18.343,1.6217,-55.553,23,25,27
-18.342,1.4921,-55.597,46,48,47
-18.342,1.3684,-55.589,36,38,34
-18.342,1.4118,-55.589,40,43,40
-18.34,1.2179,-55.471,16,18,16
-18.34,1.2976,-55.551,17,20,14
-18.34,1.5836,-55.569,29,32,32
-18.339,1.486,-55.604,43,47,44
-18.338,1.5058,-55.596,43,47,44
-18.338,1.6475,-55.541,21,24,24
-18.337,1.627,-55.548,22,24,25
-18.336,1.4726,-55.604,41,45,43
-18.335,0.84373,-55.636,12,14,12
-18.334,1.4925,-55.593,40,44,40
-18.334,1.5007,-55.598,41,45,43
-18.334,1.5053,-55.591,40,44,43
-18.333,0.37665,-55.581,26,32,36
-18.333,0.58836,-55.677,46,48,44
-18.332,1.5304,-55.59,35,40,38
-18.331,1.0932,-55.498,18,24,24
-18.33,1.6365,-55.544,23,25,26
-18.33,0.43609,-55.597,22,25,26
-18.33,0.55177,-55.662,48,51,48
-18.326,1.0115,-55.585,11,14,14
-18.325,1.3418,-55.587,29,31,26
-18.324,1.5876,-55.571,29,32,32
-18.323,1.3583,-55.591,28,31,25
-18.322,0.48572,-55.638,44,46,40
-18.32,1.5618,-55.585,32,36,36
-18.319,1.5173,-55.589,36,40,39
-18.319,1.6625,-55.525,23,26,26
-18.319,0.6308,-55.673,34,35,32
-18.318,1.3221,-55.569,23,24,20
-18.315,1.5421,-55.59,33,37,36
-18.31,1.4306,-55.584,42,46,44
-18.31,0.95069,-55.617,10,12,12
-18.309,1.5588,-55.569,30,33,32
-18.307,1.6119,-55.552,26,31,31
-18.306,1.3784,-55.58,30,32,29
-18.306,1.473,-55.578,38,43,40
-18.305,1.5104,-55.577,35,38,38
-18.305,0.51688,-55.655,48,48,43
-18.302,1.3513,-55.575,25,29,25
-18.302,1.5572,-55.58,36,41,40
-18.301,1.5755,-55.581,34,38,39
-18.3,1.5952,-55.57,33,37,38
-18.3,0.49608,-55.658,45,46,39
-18.297,0.48727,-55.646,46,48,42
-18.295,1.3227,-55.526,23,24,19
-18.293,0.99841,-55.553,17,21,23
-18.293,0.8128,-55.677,11,12,12
-18.291,0.4764,-55.642,46,47,43
-18.291,1.5855,-55.574,37,42,42
-18.291,0.48172,-55.612,41,43,39
-18.291,0.51548,-55.654,45,47,40
-18.29,1.6384,-55.533,23,25,25
-18.287,0.49227,-55.649,46,48,42
-18.287,1.619,-55.523,26,30,28
-18.287,1.5942,-55.556,37,42,40
-18.286,0.45146,-55.56,26,32,32
-18.283,0.49212,-55.637,46,47,42
-18.283,0.59865,-55.65,43,45,40
-18.283,1.5535,-55.562,41,44,43
-18.282,1.3964,-55.559,32,34,32
-18.282,1.5258,-55.554,42,44,43
-18.281,0.73347,-55.67,16,17,16
-18.281,0.39804,-55.548,25,32,36
-18.28,1.5879,-55.571,38,43,43
-18.278,1.2488,-55.459,17,18,16
-18.277,0.90017,-55.647,8,10,11
-18.276,1.4536,-55.549,36,41,39
-18.275,0.52885,-55.643,47,48,43
-18.275,1.5668,-55.54,40,43,40
-18.274,1.4197,-55.545,37,41,38
-18.269,0.48979,-55.546,25,31,31
-18.268,0.84877,-55.697,12,16,15
-18.268,0.87186,-55.673,7,10,11
-18.268,1.1434,-55.417,16,20,20
-18.267,0.56271,-55.639,50,53,48
-18.266,1.3779,-55.532,32,34,32
-18.266,0.9287,-55.581,18,23,25
-18.265,0.82387,-55.677,8,12,12
-18.265,0.44354,-55.519,24,32,34
-18.265,0.53515,-55.623,46,47,42
-18.265,0.54158,-55.601,48,50,46
-18.265,0.86074,-55.686,11,15,14
-18.263,0.57435,-55.624,51,53,48
-18.262,1.6019,-55.509,32,34,32
-18.262,0.73901,-55.62,23,25,26
-18.261,1.6444,-55.514,24,25,25
-18.26,1.314,-55.493,24,25,20
-18.259,0.61921,-55.594,45,48,44
-18.258,0.8576,-55.62,16,21,23
-18.258,0.55993,-55.564,49,51,47
-18.257,0.48397,-55.515,32,36,35
-18.255,0.53997,-55.531,45,47,42
-18.254,1.5035,-55.531,38,41,38
-18.253,0.44557,-55.506,24,30,30
-18.253,0.60835,-55.548,46,48,46
-18.253,0.68902,-55.551,44,48,48
-18.252,0.78645,-55.555,41,48,50
-18.249,0.73514,-55.523,47,51,52
-18.249,1.0516,-55.457,17,22,23
-18.247,0.46371,-55.504,29,32,32
-18.247,0.61768,-55.522,46,48,46
-18.247,0.84261,-55.544,41,47,48
-18.246,0.41046,-55.516,24,30,31
-18.245,1.372,-55.51,31,32,27
-18.245,0.68699,-55.516,47,50,50
-18.24,0.81543,-55.518,46,51,52
-18.24,1.3909,-55.515,33,35,31
-18.24,1.6193,-55.501,28,29,27
-18.239,1.3791,-55.507,31,32,28
-18.238,1.4358,-55.523,33,36,32
-18.238,0.54129,-55.508,38,41,36
-18.235,0.88534,-55.526,35,40,40
-18.235,0.77034,-55.514,46,50,50
-18.234,1.5134,-55.512,35,38,34
-18.234,0.71787,-55.508,46,48,48
