3.1114,-3.0916,1.0314,44,45,47
3.1114,-2.9274,1.1504,115,120,121
3.1116,-2.9359,1.0326,193,196,198
3.1116,-2.8646,1.2014,97,103,103
3.1118,-3.0854,0.99853,53,56,56
3.1121,-2.8487,1.2731,91,96,95
3.1121,-3.0004,0.96735,220,222,224
3.1122,-3.0927,1.0437,36,37,40
3.1122,-2.9192,1.1629,114,118,119
3.1123,-3.2023,0.83408,70,99,143
3.1123,-3.1038,1.0447,25,28,30
3.1124,-2.9417,1.1328,133,140,144
3.1125,-2.56,1.443,57,52,47
3.1129,-1.6177,1.713,43,45,42
3.1129,-2.5488,1.4658,48,49,44
3.113,-3.061,0.98478,85,80,95
3.113,-2.5511,1.4663,45,47,40
3.1133,-2.9721,1.1228,156,164,171
3.1133,-2.0407,1.7108,49,50,47
3.1133,-2.5554,1.433,86,80,73
3.1135,-3.1989,0.87087,61,91,139
3.1135,-2.9785,0.97632,227,227,228
3.1135,-2.4402,1.4492,81,78,82
3.1135,-2.9651,1.1287,136,141,152
3.1137,-3.0872,1.0406,54,57,58
3.1137,-2.055,1.7113,48,49,46
3.1138,-2.8703,1.1858,112,116,118
3.1139,-2.5463,1.4606,52,52,48
3.114,-2.9398,1.147,116,121,122
3.114,-2.8917,1.1855,102,106,109
3.114,-2.0498,1.7117,48,49,46
3.1141,-3.2094,0.80363,74,97,131
3.1142,-2.461,1.3957,24,24,23
3.1142,-2.9712,0.98762,226,228,227
3.1142,-1.7266,1.7603,37,38,35
3.1144,-2.5441,1.4157,29,28,24
3.1144,-1.5711,1.7172,48,49,48
3.1145,-2.9887,0.97183,228,228,230
3.1145,-2.5448,1.4353,86,81,73
3.1146,-2.9636,1.1227,151,158,163
3.1146,-2.9479,1.118,134,143,143
3.1147,-2.5502,1.4711,44,46,39
3.1147,-2.5599,1.4679,37,36,29
3.1149,-2.4925,1.4105,50,50,46
3.115,-2.5336,1.4662,93,91,86
3.1152,-3.0805,1.0309,80,81,88
3.1152,-2.573,1.4851,34,33,22
3.1153,-2.9937,0.97209,230,231,232
3.1153,-2.9286,1.1051,118,117,121
3.1154,-2.5286,1.5119,129,122,101
3.1154,-2.9034,1.1879,114,118,119
3.1154,-2.6305,1.6664,46,46,44
3.1155,-2.879,1.1938,91,96,98
3.1155,-2.5264,1.6669,60,59,52
3.1156,-2.4552,1.4319,99,96,93
3.1156,-2.9598,1.01,209,212,214
3.1158,-2.7928,1.5484,96,102,103
3.1158,-2.5,1.4478,74,73,74
3.1158,-2.9599,1.1407,124,128,133
3.1158,-2.5205,1.4695,65,66,64
3.1162,-3.1532,0.99284,83,96,103
3.1162,-3.0667,1.0037,71,72,78
3.1163,-2.5314,1.4355,127,120,111
3.1164,-3.0354,0.9804,230,229,233
3.1165,-3.1174,1.0488,28,32,31
3.1167,-2.1584,1.7229,46,46,40
3.1169,-2.5248,1.4215,59,59,50
3.117,-3.0848,1.0557,56,58,60
3.1171,-2.5962,1.6698,71,71,72
3.1171,-3.1109,1.0645,21,24,24
3.1171,-2.8682,1.2141,96,103,104
3.1172,-3.0084,1.1225,132,139,146
3.1173,-3.2029,0.88437,57,90,139
3.1173,-2.516,1.4376,96,94,87
3.1174,-2.2076,1.8214,32,33,29
3.1176,-2.9165,1.1882,105,108,111
3.1176,-2.9917,0.97714,231,231,233
3.1176,-2.9362,1.1694,107,110,112
3.1177,-2.7582,1.6726,61,66,66
3.1179,-2.9879,0.98404,229,229,230
3.1179,-2.0625,1.7139,48,49,46
3.118,-3.2067,0.86448,60,93,141
3.1181,-2.1319,1.7254,50,51,48
3.1182,-3.0766,1.0483,64,66,69
3.1182,-3.097,1.0686,32,34,36
3.1182,-2.8006,1.5243,94,100,100
3.1182,-3.199,0.90418,61,92,139
3.1182,-2.5117,1.422,58,58,48
3.1183,-2.9858,1.1435,122,127,129
3.1184,-3.0013,0.98088,230,230,233
3.1185,-2.1916,1.7326,25,25,20
3.1185,-1.4976,1.7229,42,44,42
3.1186,-1.5283,1.7221,42,44,40
3.1187,-2.7108,1.7201,20,26,28
3.1188,-2.9783,1.1108,129,135,138
3.1189,-2.8648,1.2446,96,100,102
3.1189,-1.6994,1.7395,21,22,19
3.1189,-2.2023,1.7442,18,20,14
3.1193,-2.8848,1.2066,94,99,101
3.1193,-2.5583,1.4835,35,34,26
3.1195,-2.5322,1.4849,48,48,44
3.1195,-3.0698,1.0425,87,87,96
3.1196,-2.9588,1.1583,122,126,128
3.1196,-1.4773,1.7247,43,46,43
3.1197,-2.8772,1.2189,98,105,105
3.1197,-2.2333,1.8272,21,22,20
3.1198,-2.8652,1.2533,89,94,94
3.1199,-1.6309,1.7205,43,45,42
3.1199,-2.0029,1.7145,51,52,50
3.1202,-2.8723,1.2253,100,107,109
3.1203,-2.2699,1.8226,21,23,22
3.1203,-2.9725,1.156,116,120,122
3.1203,-1.9664,1.7148,49,51,48
3.1204,-2.559,1.515,54,50,39
3.1205,-3.06,1.0273,149,145,159
3.1207,-1.9405,1.7174,52,54,51
3.1207,-2.9613,1.1624,118,122,125
3.1211,-2.9447,1.1763,104,107,110
3.1211,-2.9528,1.1705,109,114,116
3.1212,-2.1773,1.7265,33,33,27
3.1212,-1.6045,1.7213,42,45,42
3.1213,-2.9492,1.1028,137,139,142
3.1214,-1.5464,1.7266,56,56,51
3.1215,-2.8068,1.482,82,90,87
3.1217,-2.8761,1.235,97,103,104
3.1218,-2.9467,1.1782,104,108,111
3.1219,-2.868,1.2626,96,99,97
3.1219,-2.8972,1.2161,94,98,101
3.122,-2.9455,1.182,102,106,109
3.122,-2.5683,1.5023,44,37,26
3.122,-1.5132,1.7252,41,43,40
3.1222,-2.8711,1.2446,91,96,96
3.1223,-2.9911,1.1551,106,112,117
3.1224,-2.542,1.4938,61,59,52
3.1225,-2.9126,1.0866,100,104,106
3.1227,-2.5309,1.4982,78,76,70
3.1228,-2.2001,1.7413,17,18,13
3.1229,-1.6794,1.734,30,32,29
3.123,-2.4717,1.4378,87,84,84
3.123,-1.7969,1.7364,59,59,55
3.1231,-2.7924,1.5945,64,70,70
3.1237,-2.8753,1.2515,89,93,93
3.1237,-2.5457,1.5068,68,66,56
3.1238,-3.0039,1.1531,112,117,119
3.1238,-1.9245,1.7214,53,54,52
3.124,-2.8915,1.2294,101,107,108
3.1241,-3.0767,1.0747,68,69,76
3.1242,-3.1892,0.96557,77,104,143
3.1242,-1.9067,1.7225,52,54,52
3.1243,-2.0498,1.7193,48,49,46
3.1244,-2.8705,1.2807,103,108,106
3.1245,-2.7469,1.696,36,44,43
3.1245,-2.9332,1.2097,97,101,102
3.1247,-2.9746,1.0239,228,229,230
3.1249,-3.1042,1.0965,49,51,52
3.1249,-2.612,1.676,68,69,71
3.125,-2.9157,1.2254,95,99,102
3.1251,-2.9483,1.199,96,101,102
3.1252,-2.9649,1.1841,104,110,114
3.1252,-2.9881,1.0165,228,229,230
3.1253,-2.2062,1.7575,22,23,17
3.1254,-3.1343,1.0671,41,48,46
3.1254,-2.886,1.2563,99,103,103
3.1255,-3.0585,1.0557,156,151,168
3.1255,-2.9709,1.0346,216,217,220
3.1255,-2.9708,1.0999,145,146,149
3.1258,-3.0326,1.025,228,228,232
3.126,-3.0795,1.1093,106,108,113
3.1263,-3.0409,1.0357,202,198,210
3.1266,-3.0085,1.0156,229,229,233
3.1269,-1.5899,1.7288,49,48,39
3.1269,-2.6056,1.678,68,70,71
3.1272,-3.054,1.1216,194,194,200
3.1274,-2.9225,1.2374,100,105,105
3.1274,-1.7175,1.7675,35,37,34
3.1275,-2.9904,1.1749,95,99,103
3.1276,-1.4985,1.7325,42,44,42
3.1276,-3.0865,1.1218,75,76,82
3.1277,-2.9553,1.2065,97,102,103
3.1279,-1.9071,1.7252,51,54,52
3.1279,-2.2012,1.7481,16,16,12
3.128,-1.6883,1.7447,24,25,22
3.1281,-1.7252,1.7724,37,40,36
3.1283,-2.9616,1.2021,96,101,102
3.1284,-2.6804,1.7276,20,23,22
3.1285,-2.8511,1.3521,69,76,80
3.1287,-2.9416,1.2267,107,112,111
3.1289,-3.0032,1.1707,90,96,98
3.129,-2.9632,1.0562,206,209,211
3.129,-1.9144,1.7263,52,54,52
3.129,-2.985,1.0355,226,227,229
3.1291,-2.8894,1.2794,105,110,110
3.1291,-1.8237,1.7308,57,58,54
3.1293,-1.8606,1.7288,52,56,55
3.1294,-1.5555,1.7386,67,67,60
3.1296,-1.5697,1.7367,73,71,64
3.1297,-2.9427,1.0789,162,164,169
3.1297,-2.9509,1.2218,102,106,106
3.1298,-2.6308,1.6805,37,38,35
3.1298,-3.0472,1.0609,216,214,223
3.13,-2.929,1.2515,96,101,101
3.1301,-2.9796,1.1919,93,97,101
3.1302,-3.1112,1.1414,33,38,36
3.1304,-2.6124,1.6805,64,64,65
3.1305,-2.9945,1.0973,145,148,152
3.1306,-2.8681,1.3116,112,118,116
3.1307,-3.0354,1.0547,219,219,224
3.1307,-2.0292,1.7244,57,57,52
3.1308,-2.9132,1.2709,96,100,98
3.1311,-2.9532,1.2273,107,113,111
3.1311,-2.9613,1.2172,98,103,103
3.1312,-2.9737,1.2018,94,98,101
3.1313,-2.5475,1.6781,58,61,59
3.1316,-3.03,1.1594,94,99,103
3.1317,-3.0418,1.0636,227,226,230
3.1317,-2.0802,1.7247,45,46,43
3.1317,-2.8811,1.3013,116,121,119
3.1317,-3.0516,1.075,201,196,210
3.1317,-2.9882,1.0521,230,229,233
3.1317,-1.9726,1.724,50,52,48
3.1318,-1.7416,1.7738,50,51,47
3.1318,-1.661,1.7434,32,33,31
3.1319,-1.9084,1.73,60,61,59
3.132,-2.9416,1.2489,104,108,109
3.1321,-3.0127,1.0492,229,229,232
3.1322,-3.0708,1.1391,67,69,76
3.1322,-2.2025,1.7624,22,22,16
3.1322,-3.0961,1.1403,38,44,46
3.1322,-2.5982,1.6818,58,61,60
3.1326,-2.992,1.1907,90,96,98
3.1327,-3.1399,1.1098,42,52,52
3.1327,-2.1622,1.7356,44,44,39
3.1327,-2.9328,1.2667,95,98,97
3.1329,-3.057,1.0951,88,91,94
3.1331,-1.89,1.7328,60,62,59
3.1331,-3.1232,1.1618,105,112,104
3.1331,-3.0077,1.1804,95,99,102
3.1331,-3.1337,1.1573,48,54,50
3.1334,-2.9797,1.0889,208,207,210
3.1334,-2.9743,1.2131,95,99,101
3.1341,-1.9572,1.7273,48,50,46
3.1341,-1.9837,1.7292,53,56,52
3.1343,-2.9625,1.2347,104,109,110
3.1346,-2.7335,1.7206,25,35,35
3.1351,-1.5625,1.7467,54,54,48
3.1356,-3.0308,1.0762,229,228,233
3.1356,-2.8956,1.3081,127,132,130
3.1356,-3.009,1.0893,225,224,227
3.1357,-2.9749,1.0754,228,230,230
3.1358,-2.1834,1.7394,22,22,18
3.1358,-3.0546,1.1578,108,113,118
3.136,-2.2081,1.8351,29,30,25
3.136,-2.8786,1.32,127,130,128
3.1361,-2.5155,1.7068,38,43,38
3.1362,-2.9301,1.289,104,109,109
3.1366,-1.9964,1.7333,63,64,58
3.1366,-2.8799,1.324,122,126,124
3.1367,-2.6918,1.7364,20,22,20
3.1367,-3.1294,1.169,133,135,130
3.1368,-2.8744,1.3216,131,137,134
3.1368,-2.9909,1.0785,230,229,232
3.1369,-2.9876,1.2147,92,97,100
3.137,-2.9424,1.2791,101,105,105
3.1376,-1.651,1.748,31,32,27
3.1379,-2.9767,1.2372,101,106,108
3.1379,-3.0512,1.1673,96,100,105
3.1379,-2.3411,1.8204,11,12,10
3.138,-1.4699,1.7394,45,47,44
3.138,-2.8242,1.5564,92,96,97
3.1383,-1.802,1.7489,57,57,52
3.1384,-3.1189,1.1687,105,115,109
3.1384,-3.0915,1.1566,65,76,76
3.1388,-3.015,1.1965,94,99,103
3.1389,-2.8849,1.3253,125,129,127
3.1394,-3.0678,1.1634,102,107,112
3.1395,-1.9407,1.7374,76,75,68
3.1395,-3.0313,1.1884,93,98,102
3.1395,-2.9896,1.2309,99,105,106
3.1397,-1.4982,1.7438,48,48,44
3.1398,-1.9241,1.7395,63,63,59
3.1398,-3.1537,1.147,106,119,125
3.1401,-1.9493,1.7375,66,66,60
3.1401,-3.0452,1.1821,95,100,104
3.1402,-3.0341,1.1913,92,96,101
3.1404,-3.0362,1.1895,93,98,103
3.1404,-1.5705,1.7519,37,37,29
3.1405,-2.0978,1.7353,35,37,35
3.1405,-1.5355,1.7496,38,41,38
3.1406,-3.2149,0.96273,60,91,134
3.1409,-1.9672,1.7386,66,66,60
3.1409,-3.0069,1.2165,97,103,105
3.1412,-2.6581,1.7116,26,28,22
3.1413,-2.2502,1.8423,21,23,21
3.1414,-3.0297,1.1976,92,97,102
3.1414,-3.0806,1.1664,92,96,102
3.1414,-2.8838,1.3301,129,135,134
3.1417,-1.7274,1.7849,38,41,36
3.1418,-3.1303,1.1769,132,134,129
3.1419,-2.9792,1.2565,97,103,104
3.1421,-2.2227,1.8471,26,28,25
3.1421,-3.1096,1.1696,96,104,102
3.1422,-1.6661,1.7537,33,34,31
3.1422,-2.6401,1.6925,52,56,56
3.1424,-1.6908,1.761,25,25,21
3.1425,-2.9508,1.2999,113,117,116
3.1425,-3.0397,1.194,92,97,102
3.1428,-3.0672,1.1778,95,99,103
3.1431,-1.7174,1.7809,33,34,31
3.1432,-2.0844,1.7371,48,50,48
3.1434,-3.1215,1.1782,124,127,120
3.144,-2.8808,1.3372,116,124,125
3.1442,-2.4269,1.7892,17,18,17
3.1444,-1.7757,1.7688,56,57,52
3.1448,-1.564,1.7541,36,38,34
3.1449,-3.097,1.1753,81,88,89
3.1449,-1.6082,1.7477,40,41,32
3.1451,-2.1796,1.7513,29,30,24
3.1451,-1.9053,1.7471,71,71,65
3.1451,-1.9403,1.7447,71,71,64
3.1453,-2.0092,1.7443,75,74,66
3.1453,-3.1745,1.1027,85,101,118
3.1456,-2.9172,1.3242,120,125,124
3.1457,-3.0224,1.2249,104,110,111
3.146,-2.9673,1.299,114,118,116
3.1462,-3.0373,1.2107,96,103,105
3.1463,-3.1039,1.1803,85,92,93
3.1466,-3.1277,1.1871,124,128,125
3.1466,-1.9765,1.7486,74,74,68
3.1468,-2.9644,1.3104,118,121,119
3.1473,-2.5932,1.6925,48,51,51
3.1474,-3.012,1.2554,100,105,109
3.1475,-3.0544,1.2033,93,98,103
3.1476,-3.0806,1.1911,87,94,97
3.1477,-2.9845,1.2814,106,112,111
3.148,-2.9733,1.3074,117,120,117
3.1482,-3.1521,1.1821,124,132,140
3.1482,-2.053,1.745,64,64,59
3.1484,-2.8968,1.3369,118,125,126
3.1487,-2.1207,1.7508,53,56,54
3.1488,-2.8904,1.3393,127,135,138
3.149,-2.2099,1.8465,25,28,22
3.149,-2.0976,1.7467,64,64,60
3.1491,-1.987,1.7488,66,66,62
3.1492,-2.085,1.746,64,65,60
3.1494,-2.6611,1.723,29,30,25
3.1494,-3.034,1.2363,108,113,114
3.1498,-3.0416,1.2281,104,109,111
3.1498,-2.9558,1.3244,115,120,120
3.1501,-2.1954,1.8056,32,32,27
3.1501,-1.8512,1.7506,61,63,59
3.1502,-1.6227,1.7542,43,44,40
3.1509,-3.1443,1.2007,127,131,132
3.1509,-2.1596,1.7524,44,44,39
3.1516,-3.0382,1.2482,104,110,112
3.1516,-1.7223,1.7921,35,36,32
3.152,-2.7394,1.7286,24,31,31
3.1522,-3.0158,1.2822,101,107,110
3.1523,-2.9909,1.314,118,122,119
3.1523,-3.0597,1.2226,95,101,104
3.1524,-2.6231,1.6978,49,52,52
3.1525,-2.8595,1.5342,96,101,105
3.1525,-3.0018,1.2978,114,119,118
3.1526,-1.9138,1.754,59,60,56
3.1527,-1.6598,1.7608,32,32,28
3.1533,-3.0522,1.2389,107,114,114
3.1537,-3.0986,1.213,93,100,103
3.1537,-3.0306,1.2756,98,103,106
3.1543,-2.821,1.6351,49,54,58
3.1548,-2.182,1.7739,26,25,19
3.155,-2.1418,1.7562,54,56,52
3.1552,-3.1491,1.2171,123,127,129
3.1555,-2.0147,1.7546,68,67,60
3.1555,-1.8889,1.7583,61,63,59
3.1562,-1.9755,1.7546,59,60,55
3.1564,-3.0499,1.2633,103,109,111
3.1564,-2.9796,1.334,99,106,119
3.1576,-3.0329,1.2929,103,110,111
3.1576,-2.8463,1.5783,78,83,86
3.1577,-2.7831,1.6972,36,44,43
3.1578,-1.7098,1.7842,31,32,28
3.1583,-3.1167,1.304,106,108,108
3.1585,-2.8733,1.5195,101,110,112
3.1588,-2.8549,1.5565,96,100,101
3.1589,-2.204,1.8424,31,32,26
3.159,-2.9008,1.3517,78,86,90
3.159,-2.8652,1.4346,68,75,80
3.159,-1.5149,1.7535,60,59,52
3.159,-2.6446,1.7116,38,40,36
3.1591,-2.1704,1.7658,30,30,23
3.1592,-2.5573,1.6977,41,45,42
3.1596,-2.863,1.5467,98,102,103
3.1596,-3.0896,1.2461,103,109,111
3.1597,-1.8233,1.7604,50,51,50
3.1598,-1.9426,1.756,64,64,58
3.1598,-1.5763,1.7645,28,29,25
3.1601,-3.1106,1.334,29,32,32
3.1604,-2.2486,1.8585,24,26,24
3.1605,-2.6514,1.7193,29,29,23
3.1605,-3.164,1.2208,123,133,148
3.1605,-3.155,1.2308,126,131,138
3.1606,-3.1436,1.2326,132,132,131
3.1607,-3.0994,1.3277,37,38,40
3.1608,-3.1006,1.3185,53,54,55
3.1609,-1.9596,1.7553,56,58,54
3.1611,-1.8594,1.7604,56,58,56
3.1617,-1.5912,1.767,29,30,25
3.1618,-3.0911,1.3369,64,64,70
3.1618,-3.128,1.3042,122,125,122
3.1618,-1.7296,1.8016,37,40,35
3.1618,-3.1265,1.3191,59,63,63
3.162,-3.0346,1.3145,115,121,120
3.162,-2.9623,1.346,97,104,114
3.1621,-3.1258,1.2414,122,127,122
3.1622,-3.0945,1.3467,40,41,44
3.1623,-2.0844,1.7623,56,58,54
3.1625,-2.6873,1.7548,18,22,20
3.1626,-3.0957,1.349,32,32,36
3.1626,-2.8687,1.5032,107,115,112
3.1627,-3.0945,1.351,33,33,38
3.1628,-3.0841,1.3424,98,101,106
3.163,-3.0953,1.3527,31,32,35
3.1631,-3.0871,1.3323,83,84,88
3.1632,-3.0799,1.3522,87,91,94
3.1633,-2.1108,1.7642,50,52,50
3.1634,-2.6011,1.7054,46,49,50
3.1634,-3.0732,1.2785,99,105,108
3.1637,-2.8895,1.5305,106,114,119
3.1637,-3.0899,1.3217,54,54,58
3.1638,-2.719,1.7472,16,22,22
3.164,-3.0586,1.3004,108,114,114
3.164,-3.0901,1.3597,46,47,50
3.164,-1.6846,1.7739,36,37,32
3.1642,-3.1352,1.2512,136,139,134
3.1643,-3.1499,1.2489,124,128,129
3.1647,-1.5495,1.7602,26,29,26
3.1647,-2.4019,1.8302,14,15,13
3.1648,-3.0993,1.3635,29,31,32
3.1649,-3.0519,1.3155,115,120,120
3.1651,-3.0196,1.334,118,124,124
3.1653,-3.1221,1.2574,119,125,121
3.1655,-3.0733,1.327,107,110,114
3.1656,-3.0999,1.2919,109,115,111
3.1658,-2.6722,1.7482,31,32,26
3.1658,-3.0916,1.2828,97,103,103
3.166,-3.1064,1.2694,101,106,109
3.166,-3.14,1.2637,138,141,139
3.166,-3.0566,1.3427,96,101,106
3.1661,-3.0541,1.3281,114,122,120
3.1663,-3.0922,1.2959,101,107,106
3.1663,-3.0578,1.3639,75,80,84
3.1663,-1.8064,1.7692,51,53,51
3.1664,-3.1262,1.2669,127,131,127
3.1664,-3.0417,1.3351,122,129,133
3.1664,-3.0772,1.3049,89,90,92
3.1667,-2.0506,1.7612,50,51,48
3.1667,-3.1244,1.2831,139,141,137
3.1669,-3.1372,1.2974,122,125,121
3.1675,-2.9076,1.5443,99,105,109
3.1677,-2.9178,1.5411,95,101,104
3.1678,-2.9134,1.3618,45,52,60
3.1679,-2.315,1.8534,15,16,16
3.168,-2.8999,1.5192,115,124,126
3.1682,-2.9064,1.3695,54,64,72
3.1684,-3.126,1.3534,32,37,36
3.1686,-3.0742,1.3813,64,68,68
3.1688,-3.0893,1.3852,29,31,34
3.1698,-2.8529,1.6103,57,62,64
3.1703,-3.1699,1.2524,119,131,150
3.1706,-3.1174,1.3736,32,36,36
3.1708,-3.0467,1.3699,45,48,51
3.1708,-2.3719,1.8497,10,10,9
3.1709,-2.929,1.3628,56,64,72
3.171,-2.8776,1.5601,93,96,98
3.171,-2.8595,1.5977,63,67,71
3.1712,-3.1504,1.2838,124,130,137
3.1712,-3.0596,1.3818,41,47,44
3.1715,-2.6994,1.7647,16,23,22
3.1717,-3.0512,1.3791,36,40,43
3.1717,-3.032,1.3551,73,78,86
3.1719,-2.8932,1.511,107,117,117
3.1724,-3.1055,1.3912,29,32,32
3.1728,-3.1532,1.3048,112,118,119
3.1729,-2.9245,1.5575,88,93,95
3.1729,-2.2183,1.8736,32,33,31
3.173,-2.91,1.5639,74,80,82
3.1733,-2.9293,1.5202,128,133,134
3.1733,-2.8994,1.4001,86,95,97
3.1734,-1.7264,1.8139,35,36,32
3.1735,-2.8977,1.5686,82,86,89
3.1737,-1.6492,1.775,35,37,34
3.1739,-1.5916,1.774,18,20,15
3.174,-2.1705,1.7842,25,24,18
3.1741,-2.8628,1.61,56,60,64
3.1742,-1.921,1.7671,33,41,43
3.1744,-1.6705,1.7769,41,42,38
3.1747,-2.0721,1.7711,26,28,23
3.1747,-1.6149,1.7754,45,47,44
3.1749,-2.95,1.5366,113,118,125
3.1749,-2.8718,1.5858,64,67,72
3.1749,-2.8822,1.5785,84,88,90
3.1749,-2.8628,1.6025,63,67,71
3.1752,-3.1262,1.3838,35,41,40
3.1755,-2.3546,1.8581,8,8,8
3.1757,-3.0808,1.4128,69,73,72
3.1761,-2.1574,1.7763,40,40,35
3.1762,-2.1228,1.7746,50,52,48
3.1766,-2.6508,1.7323,33,33,28
3.177,-3.0483,1.3843,50,54,56
3.1772,-3.097,1.4234,41,43,44
3.1774,-1.7257,1.8172,35,36,32
3.1778,-3.1521,1.3321,67,76,80
3.1778,-1.7216,1.8126,32,33,29
3.1778,-2.9749,1.365,49,60,70
3.1778,-2.9337,1.5682,76,82,85
3.1779,-2.9509,1.5208,144,149,160
3.1779,-1.9727,1.7635,49,53,52
3.1779,-2.6257,1.7194,51,56,56
3.1781,-2.6393,1.7243,44,46,44
3.1781,-2.6888,1.7718,18,22,21
3.1785,-1.7529,1.8077,53,56,52
3.1786,-2.9699,1.527,126,130,142
3.1787,-2.2785,1.8657,22,24,24
3.1787,-2.882,1.4816,130,130,127
3.1787,-2.1972,1.8365,22,22,16
3.1788,-3.0158,1.3611,64,73,87
3.1789,-2.5847,1.7195,49,52,52
3.1791,-2.0212,1.7658,44,45,42
3.1792,-3.1007,1.444,46,47,50
3.1793,-2.9714,1.5376,89,95,100
3.1795,-1.6949,1.788,29,29,24
3.1798,-2.8925,1.5967,60,64,68
3.18,-1.9889,1.764,51,56,52
3.1802,-1.4825,1.7567,54,56,52
3.1802,-2.1029,1.778,45,47,43
3.1807,-2.9072,1.5916,65,71,74
3.1807,-1.7294,1.8198,40,41,36
3.1809,-2.0039,1.7652,48,51,48
3.1817,-2.991,1.5281,108,115,124
3.1817,-2.886,1.61,53,59,62
3.1819,-2.9656,1.5176,127,134,133
3.1823,-2.9261,1.3821,40,49,56
3.1828,-2.9809,1.519,142,151,154
3.1829,-3.0818,1.4593,73,77,76
3.1833,-3.0877,1.4765,64,65,68
3.1833,-1.6586,1.7825,33,35,31
3.1836,-2.9365,1.5854,65,71,74
3.1838,-1.8514,1.7736,40,41,38
3.1839,-2.1369,1.7809,50,51,48
3.184,-2.9965,1.5379,87,94,98
3.1841,-3.0001,1.5184,145,153,159
3.1842,-3.0088,1.5207,137,144,153
3.1843,-2.5411,1.7448,42,45,40
3.1844,-2.9052,1.5037,126,129,128
3.1844,-1.7073,1.8021,21,22,17
3.1847,-2.6544,1.7449,29,30,23
3.1849,-2.3858,1.8624,8,10,9
3.1851,-3.1784,1.2993,99,117,142
3.1852,-3.0141,1.5311,98,103,112
3.1854,-3.0819,1.4882,72,74,74
3.1856,-2.8959,1.4979,137,137,136
3.1859,-2.2475,1.8802,24,25,25
3.1863,-1.6801,1.7873,43,44,40
3.1864,-2.9214,1.6005,64,68,72
3.1867,-1.6293,1.7856,42,44,40
3.1869,-1.8893,1.7793,25,32,32
3.187,-3.0788,1.4766,80,82,82
3.1872,-3.0332,1.5285,96,99,111
3.1874,-1.6984,1.796,25,25,20
3.1874,-3.0264,1.5218,108,113,126
3.1874,-3.0251,1.535,91,96,103
3.1874,-2.3031,1.8669,24,25,25
3.1877,-3.0657,1.4188,54,62,56
3.1878,-3.0866,1.5021,65,65,68
3.1879,-2.9662,1.3818,40,50,59
3.188,-2.6997,1.7844,18,24,23
3.188,-1.6726,1.7872,46,47,43
3.1881,-2.0825,1.7804,23,24,19
3.1883,-3.0359,1.5253,106,110,121
3.1884,-3.0375,1.3917,49,57,56
3.1884,-2.957,1.5891,66,71,74
3.1885,-2.3669,1.8682,8,10,9
3.1886,-2.9912,1.5613,93,98,102
3.1888,-3.204,1.2443,83,106,142
3.189,-3.0092,1.5133,136,143,145
3.1895,-1.8381,1.7758,47,48,44
3.1897,-3.0764,1.5041,70,70,71
3.1899,-2.8687,1.6515,44,48,52
3.1905,-3.0011,1.5117,138,147,149
3.1906,-1.7222,1.8249,16,16,12
3.1906,-2.6756,1.7739,31,32,28
3.1909,-2.2253,1.891,32,33,31
3.191,-3.1051,1.4891,37,38,42
3.1912,-1.8249,1.7789,49,51,48
3.1913,-3.0794,1.5216,87,88,95
3.1913,-2.9933,1.3824,37,48,56
3.1915,-2.7351,1.7665,17,26,27
3.1916,-2.9523,1.506,132,137,136
3.192,-3.0408,1.5396,89,95,98
3.1928,-2.1558,1.791,35,35,30
3.1929,-2.9563,1.3969,48,59,64
3.1931,-2.2161,1.8894,35,36,34
3.1937,-3.0412,1.5175,114,118,121
3.1937,-1.6709,1.7921,43,44,40
3.1939,-2.9535,1.6048,57,62,64
3.1941,-2.987,1.5872,71,77,80
3.1941,-3.0198,1.573,86,90,95
3.1941,-1.6818,1.7936,44,45,40
3.1944,-2.9853,1.4034,102,112,112
3.1947,-2.8999,1.4649,84,90,89
3.1948,-2.3504,1.8705,11,12,11
3.195,-2.9223,1.4287,70,77,87
3.1951,-2.9211,1.6173,59,64,66
3.1953,-3.0594,1.515,94,97,100
3.1954,-3.0227,1.405,42,51,56
3.1955,-2.9493,1.4226,133,136,138
3.1961,-3.0427,1.5634,86,93,95
3.1965,-3.0671,1.5382,63,65,72
3.197,-1.8021,1.7947,53,56,55
3.197,-1.6904,1.8002,34,35,30
3.1972,-3.0945,1.5291,48,50,55
3.1973,-2.139,1.7931,45,46,40
3.1974,-2.4246,1.8485,21,22,17
3.1978,-2.9832,1.4367,147,153,153
3.1978,-2.655,1.7591,28,28,21
3.1979,-1.8705,1.7837,31,32,28
3.198,-2.956,1.4397,96,99,109
3.198,-3.0636,1.4612,59,65,60
3.1981,-3.0262,1.5034,137,134,134
3.1986,-3.1408,1.4334,40,46,48
3.1986,-3.0418,1.5837,81,89,92
3.1987,-2.978,1.5055,122,123,119
3.1992,-2.9778,1.6073,63,68,71
3.1994,-2.288,1.8793,23,24,24
3.1997,-2.8112,1.7184,24,31,30
3.1998,-3.0259,1.4412,94,92,105
3.1998,-2.3953,1.872,12,14,12
3.1999,-2.0556,1.7765,30,30,28
3.1999,-2.5671,1.7451,34,37,31
3.2,-2.9688,1.5031,127,128,125
3.2001,-1.6427,1.7975,45,47,44
3.2001,-1.9473,1.7752,35,43,47
3.2005,-2.6815,1.7872,23,24,21
3.2008,-1.967,1.7721,37,44,47
3.2014,-2.1503,1.7977,44,45,39
3.2015,-2.9098,1.4523,48,58,64
3.2015,-3.0572,1.4937,63,65,63
3.2016,-1.5639,1.7735,12,15,15
3.2019,-3.0617,1.571,83,88,93
3.202,-3.0094,1.4455,50,58,71
3.2024,-2.633,1.7464,57,61,63
3.2028,-1.6606,1.8002,37,38,35
3.2032,-2.1825,1.8147,24,24,19
3.2034,-2.3735,1.8792,12,12,12
3.2035,-3.0596,1.5854,76,82,87
3.204,-2.6903,1.7962,15,20,17
3.2041,-2.6451,1.7547,34,34,29
3.2044,-2.388,1.8808,10,12,11
3.2046,-1.743,1.8341,42,43,39
3.2047,-3.0403,1.4566,40,44,44
3.2048,-2.723,1.7888,25,33,36
3.2048,-2.156,1.8015,40,40,35
3.205,-2.5318,1.7731,25,28,22
3.2051,-3.0462,1.6004,68,73,80
3.2053,-2.0841,1.7885,20,21,16
3.2054,-2.1049,1.7995,29,32,26
3.2056,-2.1509,1.8017,45,45,40
3.2058,-2.2258,1.8991,28,29,26
3.206,-2.1488,1.8016,46,46,40
3.206,-3.0517,1.4655,42,45,40
3.2062,-2.9165,1.4772,85,92,94
3.2064,-3.0617,1.5941,72,77,84
3.207,-2.6844,1.7961,17,22,18
3.2071,-1.7023,1.8185,21,22,16
3.2073,-1.909,1.7881,25,35,40
3.2074,-3.025,1.6165,73,80,84
3.2075,-2.386,1.8846,12,12,13
3.2078,-3.0295,1.4884,149,149,144
3.2079,-3.0518,1.4733,48,51,48
3.2081,-2.988,1.4971,146,143,141
3.2081,-2.9576,1.4914,125,123,117
3.2085,-2.2022,1.8787,25,25,20
3.2088,-2.936,1.4561,42,50,58
3.2089,-1.6861,1.8086,44,45,40
3.2089,-2.9674,1.4606,42,52,58
3.209,-2.1456,1.8044,44,44,39
3.2091,-3.0758,1.5867,69,75,80
3.2091,-2.656,1.7697,28,29,22
3.2092,-3.0146,1.4914,184,184,175
3.2093,-3.045,1.4791,73,75,72
3.2094,-3.1044,1.5656,58,64,70
3.2096,-2.92,1.4512,48,59,64
3.2097,-2.6658,1.7819,29,30,25
3.2099,-2.5896,1.7485,56,59,60
3.2099,-1.9824,1.7753,36,44,47
3.2102,-1.6126,1.7989,36,40,36
3.2107,-2.3323,1.8816,15,16,16
3.2109,-3.091,1.5878,70,78,80
3.2109,-3.0438,1.4704,35,41,39
3.211,-3.1221,1.5328,50,56,55
3.2115,-3.0012,1.4645,48,60,68
3.2116,-2.9428,1.4803,63,70,72
3.2117,-2.9537,1.464,48,57,60
3.2117,-1.8741,1.794,26,29,25
3.2122,-2.393,1.8869,12,15,14
3.2123,-3.022,1.4702,40,48,52
3.2123,-3.0858,1.5944,68,75,79
3.2124,-2.6883,1.8021,17,22,20
3.2124,-1.8381,1.7893,53,56,54
3.213,-2.368,1.8832,10,11,10
3.2133,-2.9761,1.4906,120,125,114
3.2134,-2.7097,1.8039,26,40,46
3.2135,-3.1079,1.584,96,104,102
3.2136,-1.7156,1.8414,18,21,15
3.2143,-3.0972,1.5951,76,85,86
3.2152,-3.1101,1.5931,96,102,102
3.2154,-3.0092,1.4795,72,83,82
3.2159,-2.9844,1.6265,35,42,46
3.2159,-1.8643,1.7947,31,32,26
3.216,-3.096,1.5998,72,82,82
3.216,-2.9646,1.4734,59,66,65
3.2161,-2.9582,1.479,75,80,78
3.2168,-2.1581,1.8131,37,38,32
3.2172,-1.8848,1.7979,32,36,36
3.2175,-2.9956,1.4786,53,64,71
3.2175,-1.6668,1.8148,41,42,38
3.2177,-1.5221,1.7672,22,30,36
3.2179,-3.1223,1.5873,116,124,119
3.2181,-2.3846,1.8904,14,15,14
3.2182,-2.8974,1.6693,31,35,40
3.2188,-2.3065,1.8902,25,29,28
3.2193,-2.7373,1.7958,30,41,46
3.2195,-1.7056,1.8349,16,17,13
3.2201,-3.1237,1.5761,98,106,102
3.2201,-3.2418,1.2803,48,80,122
3.2207,-2.2409,1.9104,23,24,24
3.2222,-2.6707,1.7986,24,26,23
3.223,-3.0818,1.6071,65,72,77
3.223,-2.638,1.7641,43,44,39
3.2232,-3.1126,1.5976,87,95,94
3.2233,-1.8307,1.7989,53,57,55
3.2244,-2.7378,1.8007,32,46,54
3.2244,-3.0455,1.6223,48,52,59
3.2245,-3.1272,1.5921,112,119,114
3.2249,-2.1672,1.826,28,28,22
3.2251,-1.875,1.8042,32,32,28
3.2253,-2.6247,1.7632,49,51,48
3.2254,-2.5847,1.7632,44,48,42
3.2256,-2.6479,1.7737,32,32,26
3.226,-3.2223,1.3525,64,89,119
3.2264,-2.9406,1.6501,26,32,36
3.2265,-2.5195,1.8033,25,28,22
3.2279,-2.7263,1.8148,41,65,85
3.2283,-3.1354,1.5899,117,125,119
3.2284,-2.4149,1.8847,18,21,18
3.2285,-1.6685,1.8259,43,45,40
3.2289,-2.6915,1.8198,23,29,30
3.2293,-2.5617,1.7777,34,36,30
3.2297,-1.6439,1.8246,37,40,35
3.2307,-2.2096,1.9133,33,34,30
3.2312,-2.3785,1.9003,12,14,13
3.232,-1.6792,1.829,43,43,38
3.2322,-2.3561,1.8967,12,15,14
3.2323,-2.1066,1.8161,36,38,32
3.2325,-2.6395,1.7711,41,41,36
3.2332,-1.8427,1.8035,43,44,40
3.2336,-1.6947,1.8373,28,28,23
3.2341,-1.8342,1.8048,54,58,56
3.2346,-3.1424,1.5934,117,125,120
3.2352,-1.8249,1.8115,54,57,56
3.2355,-1.8925,1.8087,33,41,42
3.2356,-2.6497,1.7847,30,29,23
3.236,-2.1599,1.8324,32,31,25
3.2362,-2.327,1.9028,17,21,20
3.2363,-2.9692,1.6484,26,32,36
3.2366,-2.0852,1.7934,17,18,14
3.2374,-2.1769,1.8504,26,28,21
3.2378,-2.1652,1.8376,26,25,19
3.2378,-2.138,1.8286,41,41,35
3.2395,-2.6077,1.7745,49,51,48
3.2397,-2.5882,1.7751,47,49,44
3.2397,-2.3681,1.9052,14,16,15
3.2402,-2.3588,1.9031,15,17,17
3.2404,-2.1623,1.8375,29,28,20
3.2404,-2.4735,1.8516,32,32,27
3.2405,-1.8473,1.8109,48,48,46
3.241,-2.2249,1.9284,29,31,28
3.2413,-1.7141,1.8622,21,21,16
3.2414,-1.7378,1.864,34,35,31
3.2418,-2.5685,1.7834,36,38,32
3.2422,-2.0151,1.7857,38,45,48
3.2434,-2.1942,1.8915,22,23,17
3.2436,-2.3912,1.9095,17,20,19
3.2439,-2.733,1.8297,48,84,118
3.2444,-2.1158,1.8303,44,46,42
3.2452,-2.7157,1.8405,46,80,111
3.2453,-1.6814,1.8403,46,47,42
3.2462,-3.0069,1.647,28,33,38
3.2462,-2.0712,1.7902,24,25,24
3.2463,-2.6286,1.781,47,48,44
3.2465,-2.6673,1.8166,28,29,24
3.2475,-2.1631,1.8443,30,29,22
3.2475,-2.7883,1.7857,30,40,47
3.2478,-1.8646,1.8217,34,35,31
3.248,-2.5675,1.7881,36,38,32
3.2487,-2.6403,1.7882,37,38,32
3.2489,-1.4855,1.7745,20,31,43
3.249,-2.3537,1.9128,14,16,18
3.2493,-2.6493,1.7975,26,28,22
3.2496,-1.6307,1.8392,41,43,40
3.2499,-2.6821,1.8332,31,32,27
3.2502,-2.379,1.9163,17,20,19
3.2502,-2.5847,1.7823,49,52,48
3.2513,-2.1881,1.8782,21,22,16
3.2515,-1.6667,1.844,41,41,36
3.2517,-2.0859,1.7967,20,21,16
3.2523,-1.8033,1.8392,53,57,55
3.2524,-2.1023,1.832,24,24,20
3.2528,-1.648,1.8443,36,37,32
3.2537,-2.1182,1.8409,45,47,43
3.254,-2.2096,1.9344,33,34,30
3.2542,-1.722,1.8801,32,33,29
3.2544,-1.7348,1.8805,45,46,40
3.2546,-2.1425,1.8444,40,41,36
3.2547,-2.1954,1.9042,21,22,16
3.2549,-1.9304,1.8073,35,46,51
3.2556,-2.9046,1.7063,26,32,35
3.2559,-2.3304,1.9231,24,31,35
3.2561,-2.6101,1.7879,50,52,50
3.2562,-3.1011,1.6327,40,48,52
3.2562,-2.5612,1.7992,35,37,32
3.2562,-1.6121,1.8306,42,43,40
3.2563,-1.8405,1.8248,44,45,40
3.2564,-2.5817,1.788,46,48,42
3.2567,-1.7093,1.8729,20,21,16
3.2578,-2.5942,1.7877,50,53,48
3.2588,-1.6346,1.8476,41,42,39
3.2597,-2.0516,1.7919,37,43,46
3.2606,-1.6454,1.8506,34,35,31
3.2612,-1.6522,1.8513,32,33,29
3.2615,-3.1662,1.5935,86,93,92
3.2617,-2.3633,1.925,12,16,19
3.2619,-1.5907,1.789,11,14,15
3.2622,-2.0815,1.7975,31,32,29
3.2625,-2.189,1.8896,14,15,11
3.2626,-2.3722,1.9263,15,17,19
3.2626,-1.702,1.8675,21,21,16
3.263,-2.7497,1.8356,47,81,111
3.263,-1.9773,1.7948,41,48,56
3.2633,-1.8795,1.8314,36,41,39
3.2637,-2.5837,1.7947,48,51,46
3.2641,-2.2822,1.9423,22,24,26
3.2642,-2.1979,1.9259,33,34,29
3.2643,-2.2375,1.9498,22,25,25
3.2643,-2.3603,1.9269,16,21,25
3.2646,-1.689,1.8595,34,34,30
3.2649,-1.6485,1.8543,34,35,31
3.266,-2.1182,1.8535,41,43,39
3.266,-1.7232,1.8944,32,33,29
3.2664,-1.7578,1.8798,67,66,62
3.2664,-2.0859,1.8129,17,18,13
3.2665,-1.6236,1.851,41,43,39
3.2669,-3.0726,1.6511,30,37,43
3.2669,-2.5677,1.8039,38,42,36
3.2673,-2.5423,1.8234,33,34,29
3.2674,-3.0446,1.656,28,34,39
3.2676,-1.6342,1.8558,42,44,40
3.2677,-1.8443,1.8343,48,48,46
3.2681,-2.1913,1.9024,16,17,13
3.2685,-1.6659,1.858,40,41,36
3.2687,-2.9771,1.6742,25,32,36
3.2689,-2.6504,1.8167,28,28,22
3.2695,-2.5627,1.8094,35,38,32
3.2703,-2.1669,1.8616,46,46,40
3.2707,-2.2077,1.9476,29,30,25
3.2712,-2.6561,1.8278,26,26,21
3.2712,-2.5772,1.8052,46,48,43
3.2713,-2.6261,1.8014,47,48,44
3.2714,-1.7022,1.8742,16,17,13
3.2722,-2.4123,1.9195,21,23,22
3.2725,-1.6308,1.8596,44,46,42
3.2731,-2.3862,1.9321,22,24,26
3.2747,-1.68,1.864,43,45,40
3.2751,-2.6391,1.8113,36,37,32
3.2753,-1.6131,1.8513,25,26,23
3.2757,-1.6481,1.8637,38,40,36
3.2761,-2.5968,1.8052,52,54,50
3.2763,-1.8437,1.8416,53,54,52
3.2764,-2.1919,1.9223,25,24,18
3.2765,-1.8367,1.8412,57,59,58
3.2767,-2.6801,1.857,21,24,23
3.2777,-2.1773,1.8811,20,20,15
3.278,-2.3621,1.9395,18,25,31
3.2781,-1.6308,1.8647,45,47,43
3.2784,-2.1316,1.8677,44,45,39
3.2786,-2.3424,1.9451,24,32,40
3.2786,-2.0779,1.8034,37,40,38
3.2786,-3.0084,1.6693,28,33,38
3.2792,-2.3196,1.9494,23,26,28
3.2793,-2.1843,1.8986,17,17,14
3.2794,-2.7368,1.8577,48,85,119
3.2794,-2.0698,1.7993,42,46,46
3.2796,-1.673,1.868,44,45,40
3.2801,-2.6479,1.8249,29,29,22
3.2809,-2.1954,1.9403,28,29,22
3.2814,-2.1056,1.8629,40,42,36
3.2822,-1.8726,1.849,32,33,30
3.2825,-2.5784,1.8169,48,51,48
3.2829,-1.8188,1.8544,51,53,52
3.283,-1.8522,1.8497,41,42,38
3.2832,-1.6864,1.8725,40,40,35
3.2838,-1.6215,1.8665,48,49,47
3.2838,-1.7423,1.9083,64,64,58
3.2846,-2.4749,1.8866,32,33,30
3.2847,-2.2099,1.9624,31,32,28
3.2857,-1.8336,1.8511,54,57,56
3.2858,-2.0927,1.843,16,17,13
3.2861,-3.0043,1.6761,29,35,40
3.2866,-2.248,1.9671,26,33,36
3.2872,-1.6011,1.8223,12,14,10
3.2875,-2.6921,1.8727,26,43,52
3.2877,-3.0078,1.6763,30,36,40
3.2882,-2.1475,1.8774,46,45,39
3.2884,-2.6546,1.8441,25,26,22
3.2884,-2.1986,1.954,31,32,26
3.2886,-2.1755,1.8917,24,24,18
3.2891,-1.5868,1.8002,15,20,24
3.2891,-3.0308,1.6746,28,34,39
3.2894,-2.078,1.8114,30,32,31
3.2897,-1.6405,1.8766,37,38,35
3.2898,-2.714,1.8756,49,87,122
3.2899,-3.0155,1.6774,29,35,40
3.2899,-1.6978,1.8841,23,23,19
3.2904,-2.0737,1.8039,40,43,43
3.2905,-2.6304,1.8206,45,46,42
3.2905,-2.5844,1.8217,50,56,52
3.2915,-2.134,1.881,47,48,43
3.2916,-1.8008,1.8746,67,64,59
3.2921,-2.1788,1.9067,30,31,23
3.2923,-3.1329,1.6575,48,59,64
3.293,-3.0095,1.6811,31,37,42
3.2931,-2.0442,1.8012,49,58,63
3.2936,-1.9041,1.8468,42,48,51
3.294,-1.6858,1.8827,41,42,39
3.2942,-3.021,1.6799,28,35,40
3.2943,-1.7215,1.9158,29,30,25
3.2945,-3.0137,1.6814,31,37,42
3.2947,-1.8543,1.8634,35,37,34
3.2948,-2.1627,1.8876,35,33,26
3.2952,-2.0563,1.8021,52,61,65
3.2954,-2.1814,1.9181,35,34,28
3.2958,-2.6414,1.8336,26,28,20
3.2961,-2.3475,1.9582,21,29,38
3.2961,-2.996,1.6877,29,34,40
3.2962,-1.7394,1.9247,59,60,55
3.2967,-2.223,1.9777,29,32,29
3.2967,-1.5598,1.7887,16,24,32
3.2968,-2.174,1.8995,29,29,19
3.2973,-1.8365,1.8619,45,48,47
3.2974,-2.5926,1.8269,50,54,52
3.2978,-2.6138,1.8248,48,52,50
3.2984,-1.6063,1.871,28,29,26
3.2993,-2.1255,1.8867,51,52,47
3.2998,-2.148,1.8884,47,46,38
3.3001,-2.1938,1.9527,25,25,18
3.3006,-1.6522,1.8891,33,35,32
3.3008,-2.7415,1.8716,48,82,111
3.3021,-2.5596,1.8448,42,44,39
3.3023,-1.758,1.9186,63,63,59
3.3029,-2.184,1.9308,32,32,24
3.303,-2.6818,1.8844,24,36,43
3.3034,-2.1526,1.8917,45,43,35
3.3034,-1.7008,1.9007,14,14,11
3.3034,-1.6726,1.8939,36,38,36
3.3038,-2.661,1.8667,30,30,23
3.3039,-1.7294,1.9302,48,48,44
3.3041,-1.6308,1.8915,34,36,35
3.3043,-3.0138,1.69,29,35,40
3.3044,-1.8808,1.8768,35,38,36
3.3044,-1.6884,1.8965,18,20,17
3.3047,-1.7854,1.9018,65,64,58
3.3049,-1.4942,1.7858,20,32,44
3.3053,-2.7934,1.8347,34,50,64
3.306,-1.8459,1.8774,41,44,40
3.3062,-1.5035,1.8947,64,63,56
3.3063,-1.5289,1.8936,36,38,36
3.3068,-1.6079,1.8928,36,40,39
3.307,-1.5407,1.8768,30,32,31
3.3072,-2.7132,1.8904,45,75,105
3.3073,-1.5587,1.884,31,33,32
3.3075,-2.0761,1.815,18,21,21
3.3076,-1.4864,1.8771,93,88,73
3.3078,-3.0742,1.6824,33,41,44
3.3087,-1.7646,1.9208,63,62,59
3.3088,-1.7698,1.917,60,60,56
3.3091,-1.5848,1.8919,34,38,38
3.3092,-1.5112,1.8701,40,43,40
3.3093,-2.1478,1.897,47,47,39
3.3095,-1.4797,1.9059,87,83,70
3.3096,-1.5599,1.8937,32,34,32
3.3097,-3.1,1.6802,34,43,48
3.3097,-2.6335,1.8401,46,47,42
3.3098,-2.2075,1.9866,26,26,19
3.31,-2.1746,1.9157,32,32,24
3.3116,-2.6041,1.8361,49,52,50
3.3121,-1.819,1.8901,69,69,63
3.3124,-2.0869,1.8301,10,11,9
3.3124,-2.6899,1.8953,24,37,46
3.3126,-1.6856,1.9109,24,26,24
3.3127,-1.5064,1.9061,51,51,46
3.3127,-1.7089,1.9294,28,29,24
3.3133,-2.1283,1.8989,56,57,52
3.3138,-2.0981,1.8914,49,52,50
3.3139,-1.6121,1.9036,40,43,42
3.3141,-2.1633,1.9066,37,34,25
3.3142,-1.6734,1.9098,29,31,28
3.3143,-2.2273,1.9955,31,32,29
3.3143,-1.5799,1.863,12,14,12
3.3151,-1.6551,1.9086,26,29,27
3.3152,-1.7398,1.9371,58,59,52
3.3157,-1.5305,1.8599,31,37,40
3.3158,-2.1895,1.9472,28,28,19
3.316,-2.1968,1.967,31,31,22
3.3163,-1.9914,1.8109,46,51,56
3.3176,-1.7964,1.9091,71,71,64
3.3177,-1.767,1.9258,59,59,55
3.3179,-2.0889,1.8391,12,12,11
3.3182,-1.9228,1.8588,48,57,60
3.3183,-1.9342,1.8931,69,69,64
3.3183,-1.5908,1.91,43,45,43
3.3184,-2.3318,1.9824,30,36,44
3.3187,-1.5248,1.9109,36,37,35
3.3191,-2.6791,1.895,20,23,21
3.3201,-1.5584,1.9095,33,34,32
3.3202,-3.04,1.6995,29,34,38
3.3203,-1.9146,1.8813,71,69,63
3.3205,-1.9525,1.8351,31,38,42
3.3208,-2.579,1.8496,49,52,47
3.3209,-1.9808,1.895,70,68,62
3.321,-3.11,1.6865,34,43,50
3.3213,-2.0791,1.8848,22,24,23
3.3214,-3.1212,1.6871,41,49,56
3.3214,-1.5408,1.913,31,32,29
3.3217,-2.005,1.8845,43,45,40
3.322,-1.9585,1.8911,88,85,73
3.3221,-3.1141,1.687,36,46,52
3.3224,-2.0415,1.8908,42,45,40
3.3225,-2.0895,1.8573,14,15,11
3.3225,-2.6706,1.8915,23,24,21
3.3225,-2.0573,1.8971,40,43,39
3.3228,-1.6761,1.9209,32,32,27
3.3228,-3.0665,1.6967,30,36,40
3.3231,-1.5083,1.9158,38,40,36
3.3232,-1.5937,1.8059,15,22,28
3.3232,-2.0347,1.811,43,48,52
3.3242,-2.9505,1.7338,29,33,38
3.3246,-1.5769,1.9152,35,36,35
3.3248,-2.7684,1.8733,36,58,76
3.3251,-1.9587,1.909,61,61,56
3.3251,-1.511,1.786,21,32,46
3.3252,-2.7134,1.9082,44,74,104
3.3253,-1.9117,1.9071,95,94,81
3.3253,-2.6169,1.8482,48,50,47
3.3256,-1.5526,1.9161,33,35,32
3.3259,-1.9324,1.8696,48,56,58
3.3264,-1.4982,1.7833,21,32,47
3.3265,-2.0833,1.8285,7,8,7
3.3269,-1.8683,1.915,88,85,74
3.3274,-1.8185,1.9134,54,57,51
3.3274,-1.9983,1.9108,54,57,52
3.3275,-1.5841,1.8352,8,8,7
3.3275,-2.1046,1.9109,61,63,60
3.3277,-1.9399,1.8539,47,58,64
3.3278,-1.9939,1.8726,46,51,52
3.328,-2.682,1.9048,23,33,38
3.328,-1.5468,1.8439,16,18,19
3.3281,-1.5822,1.9195,41,43,40
3.3285,-2.0428,1.9111,54,57,52
3.3288,-2.0562,1.8146,33,40,44
3.3291,-3.0545,1.7048,28,33,38
3.3292,-3.0492,1.7059,30,34,39
3.3294,-1.957,1.8695,58,64,65
3.3294,-1.9224,1.9133,70,70,64
3.3299,-3.1103,1.6954,36,45,51
3.3301,-3.0653,1.7035,30,35,40
3.3303,-3.0623,1.7043,29,33,38
3.3303,-1.4812,1.8364,24,30,31
3.3309,-3.188,1.6753,52,67,78
3.331,-2.9923,1.7173,29,34,39
3.3312,-2.1912,1.9531,26,26,18
3.3312,-2.7425,1.8973,48,82,119
3.3313,-1.5887,1.9214,45,46,44
3.3319,-1.9741,1.8665,47,58,64
3.3319,-2.0852,1.8401,8,8,8
3.3322,-2.2319,2.0105,25,31,34
3.3323,-2.8707,1.7953,24,30,32
3.3323,-2.0062,1.8647,45,52,54
3.3324,-2.1974,1.9876,25,26,19
3.3324,-1.5471,1.9218,35,37,34
3.3326,-2.0676,1.9143,54,56,52
3.3327,-1.9518,1.856,46,57,60
3.3331,-1.5563,1.9224,38,41,38
3.3331,-1.6329,1.9185,40,41,38
3.3333,-2.0427,1.8669,46,53,56
3.3336,-3.0593,1.708,29,34,39
3.3337,-2.6076,1.8541,49,51,47
3.334,-3.0975,1.7012,34,42,47
3.3341,-2.6982,1.9179,35,62,81
3.3345,-1.5814,1.9241,44,45,42
3.3355,-2.1443,1.9168,59,61,56
3.3356,-1.8139,1.9207,52,54,50
3.3357,-1.8492,1.922,49,50,47
3.3358,-3.0644,1.7092,32,38,43
3.336,-2.6298,1.8593,47,48,44
3.3361,-3.0501,1.7122,32,38,43
3.3365,-1.7168,1.9508,36,37,34
3.3365,-1.5811,1.7988,16,25,35
3.3366,-1.493,1.9257,43,43,39
3.3375,-2.6404,1.8657,32,32,24
3.3382,-1.9597,1.9215,56,58,55
3.3384,-1.9664,1.8553,48,59,64
3.3384,-1.5052,1.7949,21,32,46
3.3393,-2.2836,2.0108,29,42,58
3.3404,-1.9967,1.8531,26,33,35
3.3405,-2.4007,1.9701,31,36,40
3.3408,-1.5926,1.8071,12,18,24
3.341,-3.1659,1.7002,52,85,121
3.3412,-2.0474,1.8164,32,38,44
3.3416,-1.4991,1.8239,16,20,21
3.3418,-1.5637,1.7984,17,29,39
3.3423,-1.886,1.9273,52,53,52
3.3425,-2.7269,1.9167,48,87,127
3.3426,-2.0798,1.8265,6,7,7
3.3426,-2.0543,1.8539,32,36,36
3.3426,-1.9725,1.8496,37,48,52
3.3426,-1.5909,1.9292,46,47,44
3.3426,-1.4905,1.8061,20,31,43
3.3427,-1.805,1.9269,50,52,48
3.3428,-2.1774,1.9347,36,35,28
3.3428,-2.6516,1.8887,50,51,47
3.3428,-2.0737,1.8249,10,12,13
3.3429,-2.7053,1.9277,48,82,117
3.3432,-2.6007,1.8631,49,52,47
3.3432,-1.7346,1.9595,45,46,40
3.3433,-2.0211,1.8523,35,45,47
3.3437,-2.08,1.8314,6,6,6
3.3438,-1.5436,1.9307,41,43,40
3.3439,-1.9811,1.8492,33,43,46
3.3444,-1.7608,1.9497,66,65,58
3.3445,-2.1055,1.9255,51,53,50
3.3447,-1.4892,1.8149,21,30,38
3.3448,-2.7471,1.9073,48,86,126
3.345,-2.0845,1.9241,47,48,44
3.3456,-2.1157,1.9264,59,62,58
3.3458,-1.5687,1.933,41,44,40
3.3458,-2.6915,1.9246,28,44,54
3.3459,-2.7153,1.93,52,95,141
3.3461,-1.9757,1.8423,26,33,35
3.3464,-1.5247,1.9315,40,41,38
3.3465,-1.5262,1.8222,16,22,25
3.3468,-2.0593,1.923,53,56,52
3.3468,-1.7862,1.9379,58,58,54
3.3469,-2.6357,1.869,46,46,40
3.347,-2.1933,1.965,22,23,16
3.3473,-2.043,1.8195,25,32,36
3.3473,-3.1304,1.713,44,58,65
3.3474,-2.2029,2.0168,29,29,22
3.3475,-2.0737,1.8368,10,10,10
3.3476,-1.502,1.7997,21,32,47
3.3481,-2.0782,1.8262,7,8,8
3.3481,-1.8742,1.9313,50,51,48
3.3485,-1.6667,1.9317,34,35,32
3.3486,-1.5816,1.8044,16,25,35
3.3486,-2.6126,1.8677,51,52,48
3.3494,-2.5244,1.9039,45,47,44
3.3495,-3.0642,1.7221,38,47,50
3.3496,-1.9898,1.8293,18,24,25
3.3498,-1.501,1.81,21,31,42
3.3504,-1.5089,1.8032,20,32,44
3.3505,-1.9026,1.9314,53,56,54
3.3506,-2.1523,1.93,57,58,54
3.3508,-2.0662,1.8297,14,16,18
3.351,-1.5366,1.8051,17,28,36
3.3511,-1.8199,1.9308,49,49,47
3.3512,-1.5151,1.8114,18,29,38
3.3514,-1.4702,1.9362,45,45,40
3.3518,-2.3479,2.011,35,48,64
3.352,-1.7172,1.9666,41,43,38
3.3525,-2.0199,1.8239,23,29,31
3.3531,-1.9931,1.8403,18,24,24
3.3535,-2.0561,1.839,16,18,18
3.3538,-1.5681,1.8092,15,24,32
3.3545,-2.9851,1.7406,36,44,48
3.3546,-1.8329,1.9342,49,50,48
3.3549,-3.0185,1.7346,29,35,39
3.355,-2.2375,2.0333,28,34,39
3.3553,-2.0473,1.8267,16,23,24
3.3554,-1.8109,1.9346,49,50,47
3.3554,-1.7984,1.9362,49,51,50
3.3556,-1.5455,1.8155,14,17,21
3.3565,-1.8607,1.9364,49,50,48
3.3565,-2.703,1.9383,52,93,138
3.3567,-1.8839,1.9361,51,53,51
3.3574,-1.5865,1.9415,40,43,40
3.3577,-2.0156,1.9301,56,58,54
3.3586,-2.7437,1.921,48,87,128
3.3588,-1.6221,1.9386,37,40,38
3.3591,-3.1191,1.7255,46,58,65
3.3593,-1.4982,1.9427,40,42,40
3.3594,-2.9709,1.747,25,32,36
3.3595,-2.6184,1.8765,53,56,52
3.3599,-1.801,1.9388,48,50,48
3.36,-2.0102,1.8341,16,21,19
3.3602,-2.5862,1.8827,49,52,48
3.3604,-1.9957,1.8334,16,21,20
3.3605,-2.7283,1.9339,50,90,136
3.3605,-2.112,1.9406,58,60,56
3.3608,-2.0294,1.8344,14,17,18
3.3611,-2.1938,1.9789,18,20,13
3.3618,-2.3743,2.0132,30,40,52
3.3619,-2.192,1.9634,15,16,11
3.3623,-2.0705,1.9336,52,54,51
3.3624,-2.0062,1.8292,15,21,21
3.3631,-2.1878,1.9528,21,21,16
3.3635,-2.9771,1.7484,24,31,34
3.3637,-3.0427,1.7382,35,44,48
3.3639,-2.6101,1.8813,52,54,51
3.3643,-2.2222,2.0489,31,34,36
3.3646,-2.7152,1.9466,51,93,140
3.3647,-2.7201,1.9456,52,95,144
3.3648,-1.7288,1.9866,43,44,40
3.3654,-1.4857,1.9501,40,42,40
3.3657,-2.9589,1.7573,29,34,38
3.366,-1.4967,1.95,40,42,40
3.3661,-3.0923,1.7304,47,58,64
3.3668,-2.6286,1.8867,48,49,47
3.367,-3.1427,1.7349,48,71,89
3.3671,-2.6691,1.9292,31,32,27
3.3676,-2.1576,1.9453,47,46,40
3.3679,-1.8924,1.945,58,59,56
3.368,-1.8029,1.9482,60,61,56
3.368,-1.8161,1.9442,48,49,47
3.3681,-2.9881,1.7515,25,32,36
3.3688,-1.8365,1.9459,54,56,52
3.3689,-2.3543,2.0262,29,42,58
3.3691,-2.715,1.9503,52,94,141
3.3693,-1.964,1.9428,54,57,56
3.3694,-1.542,1.9537,37,41,39
3.3696,-3.131,1.7375,41,59,70
3.37,-1.8646,1.9471,53,56,52
3.3702,-2.1883,1.9627,16,17,12
3.3709,-1.7534,1.9801,72,71,64
3.3711,-1.7745,1.9671,69,68,60
3.3715,-3.1641,1.7373,51,82,113
3.3716,-2.1759,1.9504,29,30,24
3.3716,-1.5143,1.9561,38,41,40
3.3724,-2.9762,1.7558,24,30,32
3.3728,-1.7917,1.9581,72,72,65
3.3729,-1.7135,1.985,33,35,32
3.3732,-2.7078,1.9512,47,80,114
3.3735,-2.0448,1.9398,50,52,51
3.3736,-2.0138,1.9413,51,54,52
3.374,-1.8455,1.9508,57,57,51
3.3741,-2.0623,1.9399,52,54,50
3.3746,-1.4774,1.9646,43,44,40
3.3749,-1.7316,1.9926,54,56,50
3.3753,-2.7576,1.9263,48,84,126
3.3758,-1.844,1.9536,64,63,56
3.3763,-1.8555,1.9544,64,63,56
3.3764,-2.6402,1.9046,51,54,52
3.3769,-2.7421,1.9414,50,91,137
3.3773,-1.8122,1.9595,72,70,64
3.3773,-2.2096,2.0519,34,37,36
3.3776,-3.2317,1.7134,53,91,133
3.3778,-2.072,1.9453,48,50,47
3.3781,-1.8942,1.9586,74,73,68
3.3784,-2.0509,1.9446,51,53,50
3.3785,-1.5758,1.962,42,45,40
3.3791,-1.7211,1.9948,40,42,36
3.3791,-3.0157,1.7578,30,37,42
3.3794,-3.1267,1.7455,42,59,71
3.3796,-2.0971,1.9537,47,48,44
3.3797,-2.9657,1.7641,24,31,34
3.3798,-1.6884,1.9672,21,22,17
3.38,-1.7473,1.9894,65,65,59
3.3802,-2.1585,1.9574,33,34,28
3.3803,-2.1914,2.0168,25,25,19
3.3804,-3.0326,1.7548,30,36,40
3.3806,-3.0533,1.7503,33,42,47
3.3809,-1.5051,1.9663,43,44,42
3.3814,-2.9993,1.7622,24,31,34
3.3816,-2.6147,1.8984,48,51,48
3.3817,-2.6045,1.8985,47,49,46
3.3825,-3.1487,1.752,44,65,80
3.3827,-1.7978,1.9666,71,70,64
3.3829,-1.8065,1.9667,68,67,60
3.3835,-2.0723,1.9505,49,51,48
3.384,-1.9583,1.9575,52,56,52
3.3843,-1.8725,1.9659,66,65,58
3.3844,-2.1993,2.0415,30,31,24
3.3845,-2.6907,1.9544,18,22,19
3.3848,-2.6693,1.9456,29,30,25
3.3849,-2.873,1.8325,28,33,39
3.3849,-1.9232,1.9637,62,63,60
3.3853,-2.1233,1.9618,57,59,56
3.3854,-2.0617,1.9518,48,51,48
3.3856,-2.6111,1.9016,47,50,47
3.3859,-1.6253,1.9647,44,46,42
3.3864,-2.1843,2.002,22,22,15
3.3865,-1.5248,1.9673,44,45,42
3.3869,-2.0008,1.9583,51,53,52
3.3881,-2.567,1.9119,52,56,54
3.3882,-2.3767,2.0169,23,31,38
3.3882,-1.7065,1.9867,21,22,18
3.3883,-3.1979,1.7439,51,90,136
3.3884,-2.1623,1.9683,33,33,26
3.3884,-1.5912,1.9676,46,48,44
3.3886,-2.6583,1.9406,31,31,25
3.3887,-2.0412,1.9578,48,51,48
3.3889,-2.5953,1.9043,45,47,44
3.3893,-1.4729,1.9755,48,50,47
3.3896,-2.3097,2.0435,29,43,59
3.3899,-2.6136,1.9069,49,51,48
3.3902,-2.7276,1.9611,51,93,140
3.3902,-2.8172,1.8909,40,63,86
3.3902,-1.8377,1.9674,61,62,55
3.3903,-3.0432,1.7603,29,36,40
3.3905,-1.8873,1.9724,61,63,58
3.3907,-2.1688,1.9793,32,32,24
3.3907,-2.5881,1.9083,48,49,48
3.3908,-1.9477,1.9666,54,57,55
3.391,-2.0229,1.963,53,57,52
3.3914,-3.0351,1.7631,25,32,36
3.392,-1.7119,1.9927,28,29,25
3.3921,-1.9705,1.9642,52,56,54
3.393,-1.6538,1.9702,45,47,43
3.3935,-2.7168,1.9711,50,88,126
3.3936,-2.1917,2.0295,26,26,20
3.3937,-2.9873,1.7731,24,30,32
3.3943,-2.6267,1.9119,50,52,51
3.3945,-2.0859,1.9647,43,45,43
3.3951,-2.0065,1.9676,56,59,55
3.3959,-3.0402,1.7655,26,34,38
3.396,-1.9574,1.969,56,57,55
3.3966,-2.9732,1.7772,24,30,32
3.3967,-2.6179,1.914,51,53,52
3.397,-2.9472,1.7905,25,32,35
3.3975,-2.64,1.9233,28,28,21
3.3978,-2.0222,1.9705,57,59,56
3.3979,-2.6687,1.9559,29,30,26
3.3979,-3.1688,1.7628,51,91,138
3.3988,-2.6941,1.9692,25,43,56
3.399,-1.5564,1.9721,45,47,43
3.4001,-3.0275,1.7722,25,32,36
3.4004,-1.6703,1.9755,41,42,38
3.4005,-2.1786,2.0084,30,31,23
3.4012,-1.6964,1.9828,24,24,19
3.4014,-1.7292,1.9961,44,45,40
3.4016,-2.6038,1.9189,46,47,44
3.4018,-2.6131,1.919,50,52,50
3.4021,-3.146,1.7683,47,77,105
3.4021,-2.0725,1.9691,48,50,48
3.4023,-2.7418,1.969,51,94,145
3.4025,-1.7872,1.9801,61,61,54
3.4028,-2.1549,1.9777,44,43,36
3.4031,-3.0569,1.7676,31,38,43
3.4037,-1.9955,1.9751,59,62,59
3.4045,-2.4996,1.952,47,50,50
3.4048,-2.6821,1.9659,17,21,19
3.4049,-3.13,1.7656,42,62,77
3.4052,-2.0966,1.9726,45,48,44
3.4058,-1.8376,1.9752,61,61,54
3.4059,-1.5079,1.9777,46,48,44
3.4069,-2.0475,1.9752,50,53,50
3.4074,-1.7011,1.9898,23,24,19
3.4078,-2.8764,1.8465,30,38,43
3.4084,-1.9774,1.9776,58,60,56
3.4089,-1.6847,1.9817,37,37,32
3.4092,-2.7369,1.9779,51,94,144
3.4094,-3.0861,1.7654,37,47,52
3.4094,-2.9962,1.7854,25,32,36
3.4095,-2.0157,1.9788,59,62,59
3.4099,-2.0326,1.9776,59,61,58
3.4099,-2.7145,1.9856,45,81,121
3.41,-2.685,1.9714,17,24,26
3.4108,-3.2081,1.7611,50,92,140
3.4111,-2.6669,1.9634,20,21,18
3.4117,-3.1078,1.7664,46,57,64
3.4118,-1.9411,1.9808,57,58,56
3.412,-2.9711,1.791,25,32,36
3.4123,-1.6659,1.9816,42,43,39
3.4131,-2.6126,1.9295,49,51,50
3.4153,-1.6741,1.9818,41,42,36
3.4155,-1.8708,1.9782,60,61,52
3.4159,-1.676,1.9845,38,40,35
3.4162,-1.6989,1.9887,29,29,24
3.4162,-3.0775,1.7735,35,44,48
3.4162,-2.6974,1.9871,31,54,79
3.4163,-2.8987,1.8303,30,34,38
3.4163,-3.0337,1.7852,31,36,42
3.4164,-2.1723,2.0106,23,23,17
3.4166,-3.0544,1.7807,32,40,44
3.4167,-1.6904,1.9892,32,32,27
3.4179,-1.6984,1.994,29,30,25
3.4191,-2.1903,2.0389,31,32,28
3.4191,-1.6923,1.9871,32,32,28
3.4193,-3.1537,1.7778,48,78,108
3.42,-2.6354,1.9405,32,33,29
3.4202,-2.1572,1.9952,32,32,26
3.4205,-1.643,1.983,41,43,38
3.4207,-2.01,1.9827,59,61,58
3.4207,-2.5668,1.9369,48,49,48
3.4214,-2.911,1.8244,29,32,36
3.4217,-2.7134,1.9967,48,86,132
3.4222,-3.1341,1.7766,37,53,64
3.4228,-3.0571,1.7864,32,41,47
3.4231,-2.8804,1.8561,34,44,48
3.4232,-3.0639,1.7853,32,41,47
3.4232,-3.0658,1.7848,32,41,47
3.4238,-3.0688,1.7838,33,43,48
3.424,-3.0959,1.7765,42,50,56
3.424,-2.0403,1.9822,60,61,58
3.4242,-2.8934,1.8437,32,40,43
3.4243,-3.0634,1.7866,33,42,48
3.4264,-1.9062,1.9844,58,59,54
3.4276,-2.708,2.0031,51,94,143
3.4279,-2.7474,1.9842,50,93,143
3.428,-2.1247,1.9858,56,58,55
3.428,-2.8142,1.9439,49,89,138
3.4285,-2.8931,1.8472,33,42,44
3.4295,-2.9149,1.8267,30,34,38
3.4296,-3.0609,1.7924,33,43,48
3.4297,-1.9798,1.9866,57,59,55
3.4308,-2.6678,1.9788,24,24,20
3.4312,-2.6977,2.0024,44,78,119
3.4314,-3.1294,1.7811,40,50,58
3.4315,-3.1999,1.7771,51,90,132
3.4325,-2.9225,1.829,30,35,39
3.433,-2.98,1.8061,24,32,35
3.4333,-2.725,1.9989,50,94,143
3.4334,-2.8995,1.8491,32,41,44
3.4354,-3.1356,1.7845,40,54,64
3.4356,-2.9659,1.8112,24,31,35
3.4356,-2.1748,2.0201,23,23,17
3.4371,-3.0422,1.8036,31,38,44
3.4385,-3.1549,1.79,49,75,101
3.4388,-2.6817,1.9943,30,46,60
3.4396,-2.0837,1.9848,54,57,52
3.4404,-3,1.8119,25,32,36
3.4406,-3.0069,1.8119,23,29,32
3.4407,-2.6262,1.9467,41,41,34
3.4408,-3.0145,1.8114,25,32,36
3.441,-2.9894,1.8113,24,31,34
3.4417,-2.7183,2.0026,51,94,143
3.4417,-2.9863,1.8121,24,31,34
3.4419,-3.0905,1.7942,40,48,54
3.4426,-2.8928,1.9007,46,80,120
3.4427,-3.0077,1.8141,23,30,32
3.4447,-1.9475,1.9895,57,58,52
3.4451,-3.0589,1.8073,41,49,55
3.4455,-2.5303,1.9628,49,51,51
3.4458,-2.915,1.8582,35,46,54
3.4464,-2.1589,2.0048,44,43,35
3.4481,-3.1178,1.7949,45,56,62
3.4482,-3.0134,1.8178,26,33,36
3.4483,-2.9882,1.8179,24,32,35
3.4488,-3.1722,1.8009,54,92,134
3.45,-2.9577,1.8264,31,36,42
3.4507,-2.9326,1.8408,36,46,52
3.4518,-2.7088,2.0083,51,93,141
3.4533,-2.9768,1.8225,28,33,38
3.4541,-3.0275,1.821,32,40,43
3.4555,-2.0213,1.9887,58,59,54
3.4565,-3.0002,1.8252,29,34,39
3.4565,-2.1884,2.0388,26,26,19
3.4584,-3.1756,1.8097,51,92,139
3.4586,-2.9317,1.8754,41,64,88
3.4597,-2.6493,1.9681,34,33,27
3.4609,-2.9875,1.8294,30,36,40
3.4624,-3.1482,1.8096,53,86,116
3.4647,-3.0963,1.8141,47,57,62
3.4648,-2.1376,1.9988,50,49,44
3.4652,-2.1599,2.0096,34,32,24
3.4659,-3.0202,1.8319,35,44,48
3.4663,-2.9687,1.8363,32,38,43
3.4665,-3.1282,1.8116,47,60,68
3.4669,-2.6852,2.0144,47,81,119
3.4675,-3.0026,1.836,32,40,44
3.4677,-2.6679,1.9932,32,42,50
3.4677,-2.1737,2.0226,29,26,18
3.4678,-2.7109,2.0108,50,92,139
3.4681,-2.624,1.959,47,47,42
3.4689,-1.7143,1.9959,36,37,32
3.4691,-2.7757,1.9864,49,91,139
3.4732,-3.1757,1.8214,52,92,139
3.474,-3.0499,1.8331,40,48,55
3.476,-2.9745,1.8537,35,47,56
3.4772,-1.5504,1.9882,45,47,43
3.4775,-2.9994,1.8455,35,44,48
3.4775,-2.0955,1.9919,59,58,52
3.4782,-2.9876,1.8483,32,38,43
3.48,-3.0099,1.8473,41,49,52
3.4801,-2.5827,1.9658,46,46,40
3.4801,-2.645,1.9672,36,35,27
3.4818,-3.167,1.8273,56,91,132
3.4818,-3.0713,1.8352,47,56,62
3.4836,-2.9851,1.8861,48,88,136
3.484,-3.096,1.8356,52,70,87
3.4843,-2.6988,2.0116,48,84,126
3.4844,-2.9849,1.8698,45,71,102
3.4852,-3.0277,1.8482,45,56,60
3.4855,-2.4348,2.0091,28,32,35
3.4856,-2.9991,1.8977,49,91,142
3.4858,-3.1552,1.8278,62,88,111
3.4859,-3.0101,1.8527,44,53,59
3.487,-2.9982,1.8584,43,58,70
3.4871,-2.6582,1.9808,29,29,22
3.4886,-3.1415,1.8318,54,75,94
3.4895,-3.1492,1.8298,57,76,89
3.4909,-3.1697,1.8357,54,92,136
3.4911,-3.1514,1.8312,60,81,95
3.4915,-3.1657,1.8339,60,94,131
3.4924,-2.7313,2.0076,47,83,125
3.4937,-3.05,1.8847,48,90,140
3.4939,-3.0225,1.8591,48,67,86
3.4951,-3.0079,1.8704,48,81,117
3.4952,-3.1089,1.8542,50,85,125
3.4953,-3.1535,1.8454,52,91,133
3.4953,-3.0738,1.8736,48,90,141
3.4959,-3.1571,1.8376,61,91,119
3.4961,-3.0833,1.8609,50,85,126
3.4961,-3.0642,1.8766,49,90,141
3.4964,-3.1343,1.8494,52,88,127
3.4965,-2.6637,1.9892,32,36,36
3.4967,-2.2029,2.0467,28,28,20
3.497,-3.1686,1.8411,53,91,133
3.4971,-2.6362,1.9694,37,36,28
3.4974,-1.889,1.9928,51,51,44
3.4975,-3.1671,1.8399,56,92,132
3.4981,-3.0471,1.8747,49,88,134
3.4988,-2.1271,2.0002,52,50,42
