-9.8713,-0.55323,61.895,122,109,102
-9.8712,-0.75702,62.224,58,71,88
-9.8712,-0.9347,62.563,173,162,144
-9.8711,-0.48011,62.173,24,23,18
-9.87,-0.84127,62.473,165,146,124
-9.8696,-1.462,62.587,197,192,181
-9.8688,-0.44954,62.35,15,16,15
-9.8684,-0.82147,62.404,106,90,75
-9.8683,-1.0635,62.577,186,177,160
-9.8683,-0.8483,62.495,200,185,165
-9.8681,-0.53786,61.892,195,178,155
-9.8677,-0.43157,62.34,32,35,30
-9.8672,-1.2367,62.513,223,200,154
-9.8669,-0.60528,61.989,160,150,136
-9.8664,-1.1194,62.576,213,205,187
-9.8659,-0.77532,62.221,58,71,88
-9.8658,-0.87513,62.525,181,171,151
-9.8652,-0.60738,62.01,160,149,136
-9.8652,-0.58411,61.96,160,150,139
-9.8652,-0.63308,62.182,150,145,134
-9.8651,-0.48638,62.361,12,12,10
-9.8647,-0.71931,62.249,70,82,91
-9.8644,-0.38596,62.344,172,158,140
-9.864,-0.91963,62.527,193,185,164
-9.8638,-1.2052,62.521,213,186,140
-9.8631,-0.6032,62.061,158,147,131
-9.8628,-0.69867,62.266,111,107,96
-9.8626,-0.84083,62.448,188,163,128
-9.8625,-0.44118,62.34,16,17,15
-9.8623,-0.96868,62.571,215,208,191
-9.8621,-1.3913,62.54,97,91,79
-9.862,-0.70736,62.26,105,106,102
-9.8616,-0.57141,61.93,74,74,80
-9.8615,-1.3321,62.567,147,136,117
-9.861,-0.36928,62.316,115,109,93
-9.8604,-1.4373,62.542,76,72,59
-9.8602,-0.48897,62.319,20,19,15
-9.8599,-1.0508,62.572,207,200,184
-9.8597,-0.80718,62.346,92,88,86
-9.8597,-1.1789,62.546,105,85,56
-9.8591,-0.66316,62.24,99,94,90
-9.8587,-0.68323,62.256,109,105,98
-9.8583,-0.63147,62.167,166,160,146
-9.8574,-0.48386,62.166,24,23,18
-9.857,-0.854,62.496,213,201,178
-9.8565,-1.0538,62.57,223,216,201
-9.8565,-0.83808,62.428,190,163,126
-9.8564,-0.96785,62.561,241,233,218
-9.8562,-0.79455,62.237,53,57,63
-9.8561,-0.99702,62.569,210,202,186
-9.856,-1.3115,62.567,191,165,122
-9.8556,-0.86584,62.509,201,191,170
-9.8556,-0.36243,62.067,48,47,39
-9.8553,-1.2061,62.498,204,176,130
-9.8552,-1.1308,62.569,196,187,170
-9.8552,-0.9841,62.562,230,224,210
-9.8552,-0.55321,61.875,213,200,176
-9.855,-1.1905,62.501,200,172,125
-9.855,-1.1824,62.509,206,178,133
-9.8548,-0.46122,62.349,17,18,16
-9.8547,-1.0484,62.57,235,229,214
-9.8544,-1.2747,62.291,200,176,132
-9.854,-1.0406,62.568,229,221,206
-9.854,-0.9297,62.494,186,175,152
-9.8539,-0.71656,62.243,86,97,105
-9.8532,-0.4975,62.352,18,16,13
-9.8531,-0.37894,62.331,174,162,144
-9.853,-0.70068,62.245,117,116,110
-9.8529,-1.0624,62.566,221,214,200
-9.8522,-0.52384,61.919,77,75,74
-9.8519,-0.43062,62.222,22,24,20
-9.8512,-0.42288,62.319,18,20,17
-9.8509,-1.2228,62.489,222,196,149
-9.8507,-1.2759,62.51,187,161,120
-9.8506,-0.62604,62.149,168,158,143
-9.8503,-0.73667,62.234,62,81,105
-9.8502,-0.56677,61.903,152,146,130
-9.8501,-0.55785,61.88,190,179,157
-9.85,-0.68871,62.239,109,108,103
-9.85,-0.46972,62.301,19,21,17
-9.8499,-0.9682,62.532,136,124,106
-9.8499,-0.75787,62.226,60,72,87
-9.8498,-0.40038,62.319,25,28,23
-9.8497,-0.61499,62.121,161,150,135
-9.8497,-0.35664,62.217,84,82,71
-9.849,-1.1936,62.487,199,172,125
-9.849,-0.7817,62.224,45,56,68
-9.8489,-1.2123,62.486,211,184,138
-9.8484,-0.93657,62.468,207,191,164
-9.8483,-0.4497,62.333,18,19,17
-9.8482,-1.1424,62.556,204,199,181
-9.8479,-0.61056,62.093,159,147,132
-9.8477,-0.71076,62.236,92,102,110
-9.8476,-0.86161,62.487,193,177,149
-9.8475,-1.2492,62.485,207,182,137
-9.8473,-0.86582,62.506,212,205,182
-9.8473,-1.2743,62.301,186,163,121
-9.847,-0.88706,62.506,211,200,177
-9.8469,-0.92225,62.47,212,195,159
-9.8465,-0.68798,62.231,120,117,110
-9.8464,-0.44786,62.192,20,21,18
-9.8459,-1.3867,62.541,130,123,108
-9.8458,-0.41149,62.286,30,32,27
-9.8455,-0.67948,62.228,120,115,108
-9.8455,-1.0167,62.563,231,224,209
-9.8455,-0.51252,61.981,76,72,72
-9.8454,-0.82259,62.368,169,145,118
-9.8451,-0.85208,62.438,212,186,144
-9.8451,-0.99226,62.542,243,237,225
-9.8448,-1.1722,62.489,187,162,121
-9.8447,-1.2677,62.277,178,153,113
-9.8447,-1.1842,62.476,200,173,128
-9.8447,-1.1153,62.558,202,193,177
-9.8445,-0.43728,62.295,20,22,18
-9.8444,-0.84044,62.411,199,172,132
-9.8442,-1.2773,62.291,200,177,134
-9.8441,-1.1576,62.513,169,156,129
-9.8439,-1.1777,62.472,202,176,134
-9.8438,-0.46472,62.339,17,18,16
-9.8438,-0.99102,62.501,246,241,232
-9.8435,-0.55228,61.88,202,188,165
-9.8434,-1.2526,62.293,172,145,105
-9.8433,-0.99945,62.513,241,236,225
-9.8429,-0.69212,62.224,132,126,114
-9.8428,-0.48248,62.347,14,14,12
-9.8424,-0.4413,62.316,18,20,16
-9.8417,-0.63454,62.157,153,149,136
-9.8416,-1.1764,62.468,197,171,128
-9.8416,-0.41973,62.303,20,22,19
-9.8416,-1.1447,62.524,238,233,219
-9.8415,-0.77012,62.221,51,65,82
-9.8414,-1.1685,62.479,175,154,120
-9.8414,-0.88978,62.471,208,190,158
-9.8411,-0.41578,62.295,24,26,22
-9.8407,-0.90451,62.46,217,197,158
-9.8406,-0.48442,62.32,22,21,17
-9.8405,-1.1844,62.465,220,193,148
-9.8404,-1.0155,62.532,240,235,224
-9.8404,-1.0518,62.542,235,230,216
-9.8403,-0.86984,62.442,211,187,148
-9.8403,-0.49072,62.335,23,21,16
-9.8403,-0.37496,62.312,104,102,82
-9.8403,-0.59505,61.971,158,148,137
-9.8402,-1.0235,62.5,238,234,223
-9.84,-0.40091,62.273,43,46,39
-9.8399,-1.078,62.552,236,230,217
-9.8398,-1.1248,62.525,242,238,228
-9.8398,-0.6591,62.201,124,117,109
-9.8396,-0.9804,62.492,224,207,170
-9.8395,-0.76206,62.223,57,73,93
-9.8395,-1.0198,62.552,233,227,212
-9.8393,-1.3415,62.553,147,139,122
-9.8393,-0.87007,62.431,208,184,145
-9.8391,-0.42794,62.3,19,22,18
-9.8389,-0.40542,62.252,33,37,31
-9.8389,-1.0495,62.505,241,235,222
-9.8389,-0.92777,62.442,220,198,153
-9.8388,-0.43942,62.194,21,22,20
-9.8387,-0.85385,62.42,212,186,144
-9.8387,-0.38876,62.302,70,74,58
-9.8386,-0.87331,62.43,210,187,148
-9.8384,-1.0961,62.503,243,236,223
-9.8382,-0.71448,62.218,62,82,106
-9.8382,-0.6138,62.008,162,152,139
-9.8381,-0.75391,62.223,57,74,96
-9.8381,-0.94617,62.444,221,199,154
-9.838,-1.2814,62.48,139,123,99
-9.838,-0.99793,62.489,216,202,173
-9.8379,-0.46877,62.32,19,21,17
-9.8378,-1.2025,62.461,220,193,148
-9.8378,-0.58086,61.944,54,56,70
-9.8377,-1.3608,62.539,140,132,116
-9.8377,-1.1274,62.508,238,233,219
-9.8376,-1.1465,62.492,220,213,195
-9.8373,-0.8676,62.423,210,186,146
-9.8357,-0.90069,62.436,220,199,155
-9.8354,-0.87966,62.423,216,193,155
-9.8354,-0.68745,62.209,136,129,115
-9.835,-0.48323,62.134,39,34,28
-9.8349,-1.156,62.472,204,186,149
-9.8349,-1.1683,62.463,185,162,121
-9.8346,-0.76321,62.219,55,72,94
-9.8346,-1.0634,62.484,236,225,206
-9.8345,-1.2603,62.251,74,57,35
-9.8343,-1.3883,62.478,105,100,87
-9.8342,-0.97274,62.469,226,204,163
-9.8341,-0.35766,62.27,98,97,83
-9.8338,-0.84155,62.398,187,160,125
-9.8337,-1.125,62.492,229,218,194
-9.8336,-1.2672,62.444,161,137,96
-9.8332,-1.4052,62.238,200,181,146
-9.8331,-0.57504,61.916,69,73,78
-9.8331,-1.047,62.481,227,213,186
-9.8328,-0.86517,62.411,212,188,147
-9.8326,-1.2595,62.319,102,84,56
-9.8326,-1.2814,62.311,169,150,114
-9.8324,-1.0263,62.475,222,206,173
-9.8323,-1.2211,62.294,56,48,33
-9.8322,-1.3104,62.531,181,170,150
-9.8321,-0.46514,62.179,20,21,17
-9.8321,-0.57917,61.939,44,50,65
-9.832,-0.81998,62.321,157,136,112
-9.8319,-1.2218,62.268,57,47,31
-9.8319,-1.3834,62.488,63,61,49
-9.8314,-1.3836,62.473,122,115,103
-9.831,-0.99961,62.467,222,203,165
-9.8309,-1.0124,62.467,218,199,161
-9.8307,-0.96438,62.427,224,203,161
-9.8306,-1.3059,62.439,125,107,78
-9.8306,-0.90319,62.418,221,199,154
-9.8304,-1.3753,62.485,81,78,67
-9.8304,-1.2344,62.436,202,176,129
-9.8301,-0.74517,62.213,59,79,102
-9.8299,-0.37587,62.302,100,101,81
-9.8297,-0.39929,62.24,31,35,29
-9.8295,-0.77922,62.218,44,55,68
-9.8295,-1.3358,62.446,148,139,119
-9.8293,-0.88457,62.409,217,195,156
-9.8289,-0.40675,62.223,26,29,24
-9.8287,-1.2277,62.307,58,50,35
-9.8287,-0.57922,61.932,47,53,66
-9.8287,-0.93143,62.414,221,199,155
-9.8285,-0.36595,62.291,103,104,86
-9.8285,-0.58007,61.939,43,49,64
-9.8285,-0.68524,62.195,121,115,105
-9.8283,-0.98198,62.431,225,204,162
-9.8283,-0.36808,62.185,80,80,70
-9.8282,-0.84161,62.383,209,182,140
-9.8282,-0.64733,62.163,81,85,86
-9.8282,-1.0617,62.474,224,205,170
-9.8282,-1.42,62.21,209,189,157
-9.8282,-0.62184,62.103,160,151,136
-9.828,-0.57068,61.898,138,133,122
-9.828,-1.3952,62.494,65,63,51
-9.8276,-0.97245,62.418,225,204,162
-9.827,-1.422,62.246,194,176,141
-9.8269,-1.3646,62.475,134,125,112
-9.8267,-1.2759,62.263,199,175,131
-9.8267,-0.70415,62.191,105,107,105
-9.8265,-1.2725,62.415,159,138,101
-9.8265,-1.4294,62.541,149,140,123
-9.8265,-0.37881,62.284,82,85,72
-9.8264,-0.95868,62.41,223,202,160
-9.8258,-1.3981,62.212,207,187,151
-9.8258,-1.149,62.452,211,189,145
-9.8257,-1.3637,62.453,171,156,134
-9.8257,-1.4068,62.484,94,88,76
-9.8256,-1.3648,62.493,84,79,68
-9.8255,-1.1086,62.476,217,201,169
-9.8255,-1.0056,62.443,224,202,160
-9.8254,-1.3201,62.498,158,149,131
-9.8252,-1.3744,62.513,80,76,63
-9.8251,-0.93835,62.404,222,201,158
-9.825,-0.53732,61.896,150,136,121
-9.825,-1.0374,62.457,222,200,156
-9.8249,-1.4019,62.465,150,140,124
-9.8249,-1.1256,62.469,219,195,150
-9.8247,-1.4448,62.29,175,156,125
-9.8247,-0.40015,62.2,43,44,38
-9.8246,-0.89753,62.401,220,199,157
-9.8245,-0.66565,62.182,107,102,96
-9.8244,-0.39112,62.184,48,48,40
-9.8242,-1.3976,62.185,207,187,152
-9.8241,-0.58081,61.938,43,49,64
-9.8241,-0.62166,62.043,160,149,135
-9.824,-1.451,62.284,168,148,114
-9.8239,-0.38401,62.26,56,63,53
-9.8237,-0.9469,62.402,223,203,162
-9.8236,-0.81874,62.282,160,139,115
-9.8234,-0.56133,61.887,166,156,138
-9.8233,-0.3911,62.214,42,46,39
-9.8233,-0.40788,62.187,24,27,22
-9.8232,-1.4552,62.293,178,157,121
-9.823,-1.3924,62.537,144,135,117
-9.8229,-1.109,62.463,219,198,157
-9.8227,-1.3866,62.226,208,187,150
-9.8227,-1.0771,62.468,240,231,215
-9.8227,-1.1047,62.472,211,193,155
-9.8225,-1.4341,62.273,171,151,118
-9.8224,-1.3935,62.445,173,157,130
-9.8222,-1.4115,62.173,198,177,141
-9.8222,-0.97974,62.408,226,206,166
-9.822,-0.76601,62.206,53,68,87
-9.8219,-0.71989,62.183,84,96,104
-9.8219,-0.38758,62.23,52,56,48
-9.8217,-0.37265,62.163,96,91,78
-9.8216,-1.3634,62.436,167,149,118
-9.8215,-1.3902,62.249,207,188,151
-9.8215,-0.85496,62.385,211,185,143
-9.8215,-0.36955,62.256,92,96,82
-9.8215,-1.3491,62.503,80,75,63
-9.8215,-0.91564,62.395,220,199,155
-9.8215,-0.39045,62.239,43,48,40
-9.8211,-1.1342,62.438,208,183,136
-9.821,-1.382,62.438,190,170,136
-9.8208,-0.93544,62.394,223,202,159
-9.8204,-1.0273,62.438,223,201,157
-9.8204,-1.4253,62.445,172,156,127
-9.8202,-0.39328,62.187,65,65,55
-9.8199,-0.59356,61.966,62,63,75
-9.8198,-1.0655,62.443,223,201,158
-9.8196,-0.37341,62.265,83,89,76
-9.8196,-1.4084,62.525,73,68,57
-9.8195,-1.3838,62.236,203,181,146
-9.8189,-0.37903,62.176,122,116,100
-9.8188,-1.3339,62.53,150,140,123
-9.8184,-1.1097,62.424,223,201,156
-9.8183,-1.2954,62.408,113,99,77
-9.8183,-1.4531,62.278,173,152,117
-9.8182,-0.37746,62.241,72,78,66
-9.8182,-0.99747,62.411,224,202,161
-9.818,-1.3858,62.171,193,171,136
-9.8179,-1.3776,62.43,179,157,124
-9.8176,-1.4567,62.285,195,174,138
-9.8175,-1.4327,62.496,96,90,77
-9.8173,-1.3783,62.185,191,171,137
-9.8172,-0.45719,62.178,19,20,17
-9.8171,-0.37638,62.253,78,84,72
-9.817,-0.71141,62.17,83,96,106
-9.8168,-1.4043,62.272,186,168,136
-9.8167,-1.4339,62.314,179,158,124
-9.8166,-0.9579,62.388,224,205,166
-9.8162,-1.2875,62.29,157,141,108
-9.8159,-0.74666,62.181,57,76,101
-9.8159,-0.67438,62.167,106,103,102
-9.8158,-1.4488,62.467,160,151,136
-9.8158,-1.4417,62.216,179,159,129
-9.8156,-0.79328,62.224,58,60,65
-9.8154,-1.4366,62.431,145,127,100
-9.8154,-1.3484,62.418,181,161,125
-9.8151,-0.58462,61.939,57,62,73
-9.8149,-0.96532,62.386,224,205,167
-9.8149,-0.6302,62.122,84,87,86
-9.8147,-1.4555,62.547,145,136,120
-9.8147,-0.96679,62.386,225,205,168
-9.8146,-1.1987,62.262,129,103,66
-9.8146,-0.61018,61.995,105,94,96
-9.8145,-0.69799,62.164,105,106,104
-9.8145,-0.97117,62.387,225,205,167
-9.8144,-1.4465,62.442,155,140,116
-9.8144,-1.3791,62.219,201,181,149
-9.8144,-1.4534,62.452,202,187,161
-9.8143,-0.42921,62.174,22,24,20
-9.8141,-1.3658,62.419,171,150,116
-9.8141,-1.1757,62.423,204,177,131
-9.814,-1.458,62.499,93,87,74
-9.814,-1.0143,62.412,224,203,162
-9.8139,-1.1186,62.404,219,195,149
-9.8138,-0.76415,62.188,56,74,98
-9.8137,-1.4414,62.529,111,104,89
-9.8134,-1.1084,62.403,219,196,150
-9.8134,-1.0525,62.411,222,199,155
-9.8133,-1.465,62.468,91,89,81
-9.8133,-0.38755,62.178,113,109,95
-9.8131,-0.88426,62.375,224,204,164
-9.813,-1.1347,62.407,205,179,133
-9.813,-1.1985,62.303,103,78,46
-9.813,-1.4262,62.422,146,130,102
-9.8128,-1.3905,62.148,195,173,139
-9.8125,-1.0881,62.405,222,199,153
-9.8124,-0.96444,62.381,224,204,167
-9.8123,-1.407,62.151,205,184,148
-9.8122,-1.4511,62.264,202,181,144
-9.8121,-1.3992,62.426,171,150,117
-9.812,-1.026,62.409,223,201,160
-9.8119,-1.432,62.171,192,173,140
-9.8114,-1.2732,62.368,105,89,62
-9.8113,-0.94779,62.377,225,205,166
-9.8106,-0.91456,62.373,225,204,162
-9.8105,-1.2553,62.401,164,140,102
-9.8105,-1.319,62.404,138,122,96
-9.8101,-0.40575,62.175,46,47,40
-9.81,-0.57553,61.903,155,146,131
-9.8094,-0.85228,62.359,216,191,150
-9.809,-0.65721,62.148,96,95,95
-9.8084,-1.2501,62.229,177,147,108
-9.8083,-1.2745,62.246,213,186,140
-9.8081,-1.4341,62.406,144,127,101
-9.8075,-0.64474,62.133,78,79,83
-9.8075,-0.72891,62.151,71,86,102
-9.8075,-1.1464,62.395,225,201,153
-9.8073,-1.3759,62.17,197,177,145
-9.8072,-1.461,62.336,191,170,136
-9.8071,-1.3787,62.143,182,162,131
-9.8068,-0.46418,62.158,17,17,13
-9.8068,-0.67968,62.148,114,110,104
-9.8059,-1.3445,62.402,208,185,145
-9.8056,-1.1178,62.382,212,187,141
-9.8055,-1.2381,62.361,63,56,41
-9.8053,-0.96409,62.368,224,203,164
-9.8053,-1.0164,62.388,223,203,163
-9.805,-1.4686,62.306,207,186,149
-9.8049,-1.3522,62.396,189,168,131
-9.8047,-1.4339,62.379,186,166,133
-9.8042,-0.70149,62.143,104,106,105
-9.8035,-0.63331,62.073,129,128,121
-9.8034,-1.3067,62.349,124,109,86
-9.8031,-0.76359,62.158,55,70,88
-9.8029,-1.4249,62.145,187,167,135
-9.8029,-1.1802,62.398,217,195,147
-9.8028,-1.3878,62.13,195,175,143
-9.8027,-1.4613,62.278,212,191,153
-9.8022,-1.2526,62.392,113,93,64
-9.802,-1.182,62.399,222,200,150
-9.802,-1.1828,62.4,219,197,149
-9.8019,-0.87325,62.348,223,201,161
-9.8018,-0.67044,62.138,105,102,98
-9.8016,-0.93772,62.358,223,202,158
-9.8016,-1.3441,62.393,194,169,129
-9.8015,-1.1453,62.377,226,202,154
-9.8014,-1.4196,62.138,194,177,146
-9.8012,-1.4093,62.407,169,151,115
-9.8011,-1.329,62.382,151,130,99
-9.8011,-1.3458,62.389,185,162,126
-9.8007,-1.3941,62.404,177,156,119
-9.8007,-1.2297,62.398,183,164,125
-9.8004,-0.9923,62.365,225,205,165
-9.8004,-1.1793,62.394,223,200,150
-9.8003,-1.1686,62.387,226,203,152
-9.8003,-1.1827,62.394,220,199,151
-9.7993,-1.2631,62.227,187,158,117
-9.7991,-1.3402,62.385,157,134,101
-9.799,-0.9279,62.353,222,201,157
-9.7988,-1.442,62.17,181,162,129
-9.7987,-1.3437,62.384,158,135,103
-9.7986,-1.4109,62.386,201,180,139
-9.7986,-0.37797,62.158,114,106,91
-9.7984,-0.44519,62.162,15,15,12
-9.7981,-1.4336,62.147,153,134,104
-9.798,-1.1815,62.387,220,200,151
-9.7978,-1.1282,62.356,219,193,145
-9.7973,-1.3987,62.337,158,139,112
-9.7972,-1.4031,62.397,202,181,137
-9.7971,-0.74057,61.954,59,76,98
-9.7971,-1.2016,62.358,68,62,48
-9.7968,-1.0714,62.37,223,201,156
-9.7968,-0.39272,62.161,99,95,81
-9.7966,-0.91373,62.347,222,200,156
-9.7965,-0.94705,62.351,222,201,159
-9.7963,-0.89603,62.343,226,205,161
-9.7961,-0.88663,62.34,228,206,161
-9.796,-0.89248,62.341,228,206,160
-9.7957,-0.73987,61.933,57,66,81
-9.7954,-1.3828,62.379,172,150,117
-9.7951,-1.3754,62.23,194,171,138
-9.7949,-0.96403,62.349,224,204,163
-9.7945,-0.5915,61.945,58,62,74
-9.7944,-1.1557,62.368,225,202,152
-9.7943,-1.1859,62.374,191,174,133
-9.7942,-1.1732,62.376,223,200,150
-9.7941,-1.4232,62.136,183,166,136
-9.794,-0.71517,62.125,117,118,115
-9.7939,-0.73228,61.936,40,44,50
-9.7939,-0.90107,62.34,225,204,160
-9.7939,-0.84277,62.316,218,196,153
-9.7937,-1.0348,62.364,223,200,154
-9.7933,-0.78704,62.193,47,59,73
-9.7933,-0.34822,62.091,50,47,39
-9.7932,-1.0857,62.354,225,204,159
-9.7931,-0.89658,62.336,226,205,160
-9.793,-0.43287,62.155,21,21,17
-9.7929,-0.98025,62.346,224,204,164
-9.7927,-1.3401,62.362,136,120,96
-9.7922,-0.74145,62.129,65,83,103
-9.7921,-1.3831,62.277,152,134,107
-9.7912,-1.374,62.18,183,162,131
-9.7912,-1.105,62.342,223,200,154
-9.7911,-0.91084,62.336,223,202,158
-9.791,-0.65927,62.11,75,77,82
-9.7909,-0.67072,62.115,109,104,97
-9.7902,-1.4341,62.151,172,153,123
-9.7894,-0.41707,62.152,25,25,21
-9.7891,-1.1746,62.364,222,199,149
-9.789,-0.70197,62.112,122,118,109
-9.7889,-0.49162,62.038,50,47,44
-9.7883,-1.417,62.14,188,169,138
-9.7881,-0.74643,61.971,57,72,91
-9.788,-1.0563,62.351,223,201,155
-9.7874,-1.1856,62.341,98,87,60
-9.7873,-0.65476,62.09,77,82,86
-9.7873,-0.92701,62.332,223,202,159
-9.7873,-0.7297,61.968,54,70,88
-9.7872,-1.0983,62.332,228,206,161
-9.787,-1.1092,62.33,226,203,158
-9.7868,-0.89176,62.321,223,202,158
-9.7867,-1.2832,62.251,156,138,105
-9.7866,-1.3945,62.137,202,182,151
-9.7864,-1.3818,62.148,195,174,141
-9.7863,-1.0681,62.343,223,202,158
-9.7859,-1.4491,62.192,200,181,146
-9.7859,-1.2531,62.222,134,106,72
-9.7859,-0.82526,62.267,225,198,157
-9.7859,-0.74794,61.941,59,70,85
-9.7858,-1.3012,62.294,128,113,90
-9.7856,-0.60124,61.973,41,47,63
-9.7849,-0.75552,62.122,58,74,93
-9.7845,-1.1746,62.355,210,188,140
-9.7845,-0.72172,61.952,40,48,58
-9.7839,-1.3187,62.326,136,123,102
-9.7836,-1.1618,62.349,206,183,135
-9.7835,-1.3648,62.341,127,112,92
-9.7835,-1.0776,62.332,223,202,157
-9.7834,-0.67109,62.098,99,97,95
-9.783,-1.108,62.323,223,200,153
-9.7826,-0.99715,62.326,223,205,166
-9.7826,-0.97589,62.326,223,202,162
-9.7821,-0.71685,62.099,88,98,107
-9.782,-1.1701,62.347,199,177,129
-9.7813,-1.1193,62.323,222,199,153
-9.7808,-1.3446,62.336,122,109,94
-9.7808,-1.0925,62.322,220,197,149
-9.7807,-1.3364,62.335,130,116,100
-9.7805,-0.74855,62.1,59,77,98
-9.7805,-0.68315,62.095,116,111,103
-9.7802,-1.1725,62.341,147,131,93
-9.7801,-0.40868,62.149,42,42,34
-9.7799,-0.62609,62.025,79,74,81
-9.7791,-0.7879,62.148,61,66,74
-9.7788,-0.75853,62.109,54,70,88
-9.7785,-0.7424,61.939,54,61,70
-9.7783,-1.4583,62.222,223,202,158
-9.7775,-1.3766,62.311,142,124,101
-9.7775,-1.1649,62.338,146,129,91
-9.7774,-1.1055,62.313,216,190,142
-9.7771,-0.5583,61.897,128,119,109
-9.777,-0.47126,62.095,25,26,18
-9.7767,-1.1692,62.325,98,87,60
-9.7767,-0.94976,62.315,222,201,160
-9.7766,-1.33,62.325,148,132,111
-9.7765,-1.0775,62.319,221,199,153
-9.7764,-0.72764,62.088,76,92,108
-9.7756,-0.96503,62.313,223,201,160
-9.7754,-0.91047,62.301,221,201,158
-9.7753,-1.1694,62.279,83,63,37
-9.7752,-1.1162,62.31,215,187,140
-9.7749,-0.87404,62.292,220,199,155
-9.7748,-1.1455,62.326,200,176,130
-9.7741,-1.3376,62.324,157,140,117
-9.7737,-0.58642,61.92,121,120,118
-9.7736,-1.0484,62.318,222,202,162
-9.7733,-0.84504,62.279,226,202,158
-9.7733,-0.66003,62.075,98,96,94
-9.773,-1.1097,62.306,207,180,133
-9.7727,-0.69927,62.08,115,112,107
-9.7726,-1.2633,62.218,173,146,108
-9.7723,-1.0023,62.304,222,202,161
-9.7723,-0.44998,62.126,25,26,19
-9.7722,-0.77454,62.124,47,53,63
-9.7713,-0.7572,62.089,57,73,93
-9.7711,-1.1353,62.312,202,176,129
-9.7709,-1.3676,62.318,139,124,102
-9.7708,-1.0956,62.304,191,165,119
-9.7707,-1.0207,62.303,223,204,166
-9.77,-1.1518,62.314,172,152,110
-9.7699,-1.3582,62.322,138,123,104
-9.7695,-0.73154,61.997,58,74,94
-9.7694,-0.89921,62.285,222,201,157
-9.7692,-1.0824,62.305,210,188,142
-9.7691,-1.106,62.3,192,164,117
-9.7687,-0.97991,62.297,221,200,160
-9.7669,-0.80344,62.211,92,84,75
-9.7662,-0.88844,62.277,225,202,156
-9.7661,-1.1241,62.294,204,176,128
-9.7659,-0.72566,61.949,34,37,41
-9.7658,-1.4365,62.174,196,177,146
-9.7657,-0.71755,61.973,41,51,62
-9.7657,-0.34891,62.078,14,14,11
-9.7656,-1.319,62.297,150,132,107
-9.7656,-1.0283,62.293,222,202,162
-9.764,-1.336,62.312,162,144,120
-9.7639,-0.64895,62.051,122,116,106
-9.7635,-0.88072,62.271,221,199,154
-9.7634,-1.251,62.216,101,76,46
-9.7634,-0.35813,62.09,35,33,27
-9.7634,-1.1066,62.29,189,161,115
-9.7632,-0.95852,62.282,221,200,158
-9.7631,-1.0007,62.282,225,206,167
-9.763,-0.60964,61.987,39,45,61
-9.7629,-1.0917,62.292,190,166,119
-9.7628,-0.93375,62.274,221,200,157
-9.7626,-0.74432,62.066,57,74,94
-9.7625,-1.0747,62.294,216,194,149
-9.7621,-0.60417,61.947,67,71,79
-9.762,-0.86589,62.269,219,196,153
-9.7616,-0.75736,61.959,57,67,80
-9.7614,-1.3802,62.176,184,163,134
-9.7608,-1.3602,62.311,140,125,102
-9.7606,-1.1534,62.277,192,168,121
-9.7603,-1.2349,62.246,72,59,36
-9.7603,-1.0613,62.289,222,201,158
-9.7596,-0.74317,62.036,61,78,99
-9.7591,-1.0419,62.283,222,202,160
-9.759,-1.1191,62.277,201,172,125
-9.7588,-1.2976,62.26,130,112,85
-9.7587,-0.91113,62.264,215,192,149
-9.7586,-1.369,62.26,165,145,115
-9.7581,-0.71359,62.051,116,114,108
-9.7578,-0.98818,62.267,224,204,165
-9.7577,-0.95888,62.264,221,200,158
-9.7573,-0.68102,62.048,127,123,112
-9.7572,-1.2733,62.222,196,173,134
-9.7569,-1.134,62.271,207,179,130
-9.7568,-1.1988,62.256,152,130,90
-9.7568,-0.95054,62.262,221,200,157
-9.7567,-0.84329,62.261,220,197,154
-9.7564,-0.61768,62.004,131,125,122
-9.7562,-0.82055,62.247,186,163,131
-9.7561,-1.1173,62.271,197,169,122
-9.756,-0.75653,62.01,52,59,68
-9.7557,-1.1038,62.275,196,170,123
-9.7556,-0.97129,62.263,221,199,158
-9.7547,-0.38938,62.109,52,50,40
-9.7542,-1.0181,62.267,225,205,168
-9.7538,-1.2649,62.21,191,165,126
-9.7534,-0.63992,62.029,70,76,85
-9.7532,-0.89004,62.257,222,199,153
-9.7532,-1.1701,62.257,157,134,91
-9.753,-0.93129,62.257,216,193,150
-9.7527,-1.246,62.229,48,36,20
-9.7525,-1.3671,62.225,158,139,109
-9.7524,-0.69221,62.038,120,119,113
-9.7515,-1.256,62.202,121,96,64
-9.7515,-0.8706,62.256,217,195,153
-9.7493,-0.65329,62.029,70,74,79
-9.7482,-1.406,62.17,203,184,153
-9.7481,-0.76642,62.063,46,59,74
-9.7474,-1.0822,62.262,207,184,138
-9.7472,-1.3488,62.29,149,133,107
-9.747,-0.67939,62.025,92,97,100
-9.7465,-1.1199,62.254,218,192,142
-9.7457,-0.62626,62.014,50,56,66
-9.7449,-0.78646,62.109,46,56,68
-9.7445,-1.3229,62.27,144,125,98
-9.7444,-1.1596,62.249,208,181,129
-9.744,-0.8284,62.252,196,175,143
-9.7439,-0.70098,62.006,64,80,100
-9.743,-0.74977,61.946,56,64,74
-9.7428,-0.85134,62.25,194,181,151
-9.7427,-0.6454,62.016,69,77,87
-9.741,-1.2483,62.191,82,63,40
-9.7408,-1.2867,62.233,141,122,90
-9.7404,-0.90529,62.247,175,154,119
-9.7399,-0.4277,62.098,38,37,28
-9.7398,-0.65855,62.01,42,45,45
-9.7395,-1.092,62.246,218,193,144
-9.7394,-0.67872,62.009,47,45,42
-9.739,-0.9661,62.243,217,196,155
-9.7389,-1.298,62.247,128,110,83
-9.7388,-1.2052,62.164,45,38,23
-9.7385,-1.2248,62.144,42,35,21
-9.7382,-1.3054,62.253,133,114,88
-9.7381,-1.235,62.179,48,37,22
-9.7377,-1.2201,62.247,45,37,22
-9.7377,-0.93071,62.243,193,171,132
-9.7376,-1.1825,62.245,98,84,53
-9.7358,-1.2448,62.176,73,56,35
-9.7349,-1.243,62.162,56,41,23
-9.7348,-1.2209,62.187,42,35,21
-9.7346,-1.2645,62.201,153,129,95
-9.7346,-0.99085,62.237,223,202,163
-9.7345,-0.82016,62.243,163,143,118
-9.7344,-0.72534,61.959,49,60,73
-9.7343,-0.51355,61.933,57,56,55
-9.7342,-1.3468,62.256,143,124,95
-9.7337,-1.1979,62.147,43,36,21
-9.7317,-0.91539,62.241,147,131,102
-9.7317,-0.78405,62.068,59,67,77
-9.7316,-0.68059,61.995,76,77,73
-9.7311,-0.83467,62.248,217,204,177
-9.7309,-0.78175,62.054,58,66,77
-9.7309,-1.2331,62.222,43,35,20
-9.7303,-0.63575,61.986,88,89,87
-9.7298,-1.2431,62.153,59,44,25
-9.7298,-0.74055,61.953,59,68,79
-9.7294,-0.70475,61.972,59,79,104
-9.7292,-0.80305,62.168,68,66,67
-9.7281,-0.82805,62.247,199,182,152
-9.7277,-1.3031,62.242,140,121,93
-9.7277,-1.1866,62.165,61,52,33
-9.7269,-1.0331,62.237,183,165,114
-9.7266,-0.61059,61.925,59,65,68
-9.7265,-0.68447,61.988,112,110,103
-9.7264,-1.2013,62.234,59,50,31
-9.726,-0.91343,62.237,129,116,89
-9.7253,-0.81448,62.223,130,115,95
-9.725,-0.84709,62.243,157,140,101
-9.725,-1.0807,62.234,214,197,161
-9.7242,-0.6536,61.983,60,62,57
-9.7237,-0.35294,61.995,15,15,12
-9.7228,-0.87867,62.238,158,145,110
-9.7226,-0.78879,62.056,113,96,83
-9.7224,-1.4455,62.201,188,171,143
-9.7223,-0.77988,62.006,87,88,89
-9.722,-0.32965,61.758,13,14,12
-9.7216,-0.9619,62.237,226,213,188
-9.7213,-1.0931,62.232,215,196,159
-9.7205,-1.2449,62.144,63,48,29
-9.7203,-1.1862,62.206,59,51,31
-9.7203,-0.83542,62.246,198,183,148
-9.7201,-0.91871,62.238,137,121,92
-9.7197,-0.68313,61.978,103,106,108
-9.7183,-0.91039,62.237,135,122,89
-9.7181,-1.2521,62.167,110,86,57
-9.718,-0.73817,61.961,64,73,84
-9.7178,-0.72696,61.962,53,64,77
-9.7177,-1.1653,62.211,213,187,137
-9.7176,-1.1738,62.15,151,126,84
-9.7174,-1.3679,62.211,160,145,122
-9.7163,-0.82181,62.24,178,160,131
-9.7159,-1.3865,61.951,186,163,130
-9.7156,-1.1391,62.227,188,169,138
-9.7149,-1.1701,62.191,146,128,90
-9.7149,-0.64016,61.956,66,81,96
-9.7147,-1.2387,62.116,65,49,30
-9.7144,-0.7501,61.946,57,67,80
-9.7143,-0.79011,62.039,86,82,81
-9.7142,-0.81723,62.235,163,146,123
-9.7128,-1.059,62.231,212,196,159
-9.7125,-0.79909,62.09,63,71,82
-9.7122,-1.2276,61.99,63,46,26
-9.7121,-0.77937,61.969,75,73,75
-9.7117,-1.2277,62.007,78,60,37
-9.7116,-1.3878,61.968,186,166,136
-9.7109,-0.93674,62.241,192,174,127
-9.7105,-0.97626,62.233,202,185,143
-9.7102,-0.38018,62.044,27,26,21
-9.7099,-0.65851,61.96,68,86,108
-9.7097,-0.58108,61.89,57,57,63
-9.7092,-0.81955,62.238,185,168,140
-9.7091,-1.3777,61.971,186,165,132
-9.7086,-0.68202,61.963,62,81,105
-9.7074,-0.8193,62.233,166,150,121
-9.7072,-0.64998,61.953,71,91,112
-9.7067,-1.0807,62.231,207,191,153
-9.7066,-0.99316,62.232,186,168,119
-9.7063,-1.4689,62.222,208,192,160
-9.7061,-1.2997,62.229,154,138,114
-9.706,-1.0463,62.231,181,160,106
-9.7057,-1.2419,62.106,75,56,34
-9.7055,-0.73008,61.955,59,76,99
-9.7055,-0.76703,61.943,46,50,57
-9.7051,-1.1586,62.188,205,179,130
-9.7048,-1.4152,61.949,183,160,123
-9.7048,-1.2288,61.981,64,48,28
-9.7042,-1.4023,61.971,186,165,131
-9.7042,-1.2112,62.119,43,35,21
-9.704,-1.2471,62.109,96,73,45
-9.7039,-0.91671,62.239,143,126,83
-9.7032,-0.46736,62.021,36,36,28
-9.703,-0.71201,61.954,57,78,104
-9.703,-1.3677,61.935,202,178,138
-9.7028,-1.1797,62.128,151,131,92
-9.7021,-1.2058,61.991,58,49,29
-9.7017,-1.2474,62.101,100,76,47
-9.7015,-1.1935,62.007,174,150,110
-9.7015,-0.81236,62.159,126,111,94
-9.7012,-0.74315,61.942,60,74,92
-9.7011,-0.83706,62.243,151,135,86
-9.7011,-0.65281,61.94,68,89,112
-9.6999,-1.3681,61.961,179,156,123
-9.6995,-1.2719,62.198,173,149,112
-9.6995,-0.63879,61.927,64,87,111
-9.6994,-0.82545,62.237,176,161,119
-9.6993,-1.3347,62.226,179,162,133
-9.699,-0.60556,61.896,65,64,73
-9.6989,-1.1463,62.216,129,105,70
-9.6988,-1.3855,61.985,188,168,132
-9.6985,-1.1516,62.201,174,147,105
-9.6984,-1.2406,61.999,112,89,59
-9.6974,-1.3753,61.984,198,176,138
-9.6974,-0.80031,62.054,153,133,111
-9.6972,-1.2177,61.973,61,51,31
-9.6971,-1.3724,61.98,191,168,132
-9.6969,-0.75246,61.93,48,59,73
-9.6966,-1.2085,62.044,40,34,21
-9.6963,-0.59774,61.874,36,41,56
-9.6953,-0.68854,61.938,59,81,108
-9.6951,-0.90074,62.238,140,124,78
-9.6948,-0.59747,61.865,30,37,50
-9.6947,-1.2334,62.103,51,41,25
-9.6945,-1.4042,61.918,194,170,131
-9.6941,-1.2551,62.132,119,95,64
-9.6939,-1.0921,62.234,170,150,112
-9.6938,-0.66854,61.927,62,85,110
-9.6932,-0.97169,62.238,173,152,92
-9.6928,-0.65779,61.917,63,86,109
-9.6926,-1.4186,61.966,184,163,127
-9.6924,-0.62705,61.908,99,101,101
-9.692,-1.015,62.232,167,146,83
-9.6919,-1.1978,61.986,109,94,63
-9.6917,-1.1479,62.182,92,72,45
-9.6914,-0.82235,62.216,142,126,108
-9.6905,-0.60614,61.868,34,40,56
-9.6904,-0.81742,62.109,150,137,104
-9.6899,-0.73561,61.926,57,77,101
-9.6897,-0.65267,61.894,63,84,108
-9.6896,-0.54316,61.897,18,20,21
-9.6891,-1.2367,62.05,119,93,60
-9.6885,-0.70064,61.911,57,77,102
-9.6882,-0.67382,61.894,61,84,108
-9.6882,-0.65062,61.885,62,83,108
-9.6876,-0.64611,61.887,66,85,108
-9.6875,-0.59391,61.864,25,31,41
-9.6871,-1.2532,62.094,116,93,63
-9.687,-1.1891,62.035,46,38,24
-9.686,-0.79411,61.982,153,135,112
-9.6859,-0.80974,62.065,225,202,157
-9.6859,-0.64806,61.879,62,81,104
-9.6857,-0.74827,61.913,53,68,87
-9.6855,-0.85388,62.24,101,86,42
-9.6855,-1.1434,62.199,101,80,50
-9.6852,-0.81892,62.178,169,154,133
-9.6851,-1.1344,62.224,72,57,33
-9.685,-0.66096,61.88,55,76,102
-9.6849,-0.72246,61.905,56,76,100
-9.6847,-0.61213,61.89,37,42,57
-9.6847,-1.1474,62.142,131,108,69
-9.6846,-1.2309,61.958,101,79,52
-9.6844,-0.63114,61.887,62,74,89
-9.6839,-1.2343,62.067,63,47,27
-9.6831,-1.1733,62.112,144,126,90
-9.6827,-0.6242,61.858,27,34,45
-9.6826,-1.245,62.074,101,79,50
-9.6822,-0.70015,61.891,56,76,102
-9.6819,-1.197,62.067,41,34,22
-9.6813,-0.60549,61.852,19,24,33
-9.6811,-1.2473,62.06,119,93,59
-9.6809,-1.2203,62.094,69,54,33
-9.6797,-1.3994,62.005,173,152,118
-9.6796,-1.1928,61.977,198,174,128
-9.6794,-0.83466,62.154,143,130,96
-9.6789,-1.4209,62.203,122,114,97
-9.6788,-1.1841,62.092,77,67,44
-9.678,-0.90744,62.184,169,158,140
-9.678,-1.1863,61.982,190,163,120
-9.6776,-1.2504,61.985,120,95,64
-9.6774,-1.3845,61.882,199,176,138
-9.6769,-0.75887,61.912,39,47,58
-9.6768,-1.1101,62.234,66,53,32
-9.6765,-0.89192,62.19,150,141,121
-9.6762,-0.87496,62.232,106,91,55
-9.6761,-0.65434,61.862,48,66,88
-9.6755,-0.80593,62.024,185,163,134
-9.6751,-0.91992,62.181,193,182,162
-9.6751,-1.2585,62.042,147,122,88
-9.675,-1.4593,62.218,127,123,107
-9.6749,-1.2265,61.954,69,52,32
-9.6749,-1.1808,62.073,127,113,82
-9.6748,-1.1339,62.198,54,43,24
-9.6747,-1.3543,61.937,209,183,145
-9.6746,-0.69451,61.875,55,75,101
-9.6744,-1.1738,61.994,131,108,75
-9.6743,-0.70571,61.879,54,75,101
-9.6743,-0.84281,62.135,129,115,79
-9.6742,-0.85374,62.165,131,119,84
-9.6742,-1.18,62.054,72,62,42
-9.674,-0.84889,62.232,104,91,50
-9.6737,-1.3499,61.899,201,179,140
-9.6735,-0.81166,62.044,224,200,158
-9.6731,-1.1323,62.178,66,56,36
-9.673,-1.4129,61.89,162,139,103
-9.673,-1.2035,61.967,128,112,81
-9.6729,-1.2392,61.958,126,104,74
-9.6729,-0.87665,62.204,134,125,99
-9.6728,-0.83543,62.073,212,191,148
-9.6727,-1.1322,62.216,60,47,26
-9.6725,-1.0689,62.233,142,123,49
-9.6723,-1.4205,61.902,166,142,105
-9.6722,-0.93273,62.165,160,143,95
-9.6722,-0.63403,61.844,26,33,42
-9.6721,-1.1586,62.101,159,139,98
-9.6719,-1.3589,62.208,107,99,85
-9.6718,-0.85079,62.239,100,87,45
-9.6718,-1.2708,62.194,185,162,122
-9.6708,-0.68112,61.866,52,72,97
-9.6708,-0.56097,61.883,12,12,15
-9.6705,-0.80331,61.999,206,183,144
-9.6704,-0.4138,62.029,27,27,22
-9.6701,-0.79313,61.966,111,96,82
-9.67,-1.3017,62.219,100,95,81
-9.67,-0.89992,62.143,147,131,89
-9.6697,-1.3669,62,177,155,121
-9.6696,-0.73329,61.879,54,73,97
-9.6695,-1.1909,61.973,187,164,122
-9.6692,-1.0516,62.226,149,129,65
-9.6688,-0.74408,61.884,49,63,81
-9.6687,-1.1243,62.213,42,36,18
-9.6686,-0.22743,60.95,12,15,14
-9.6685,-1.4309,61.961,200,176,137
-9.6682,-1.3872,61.867,204,183,148
-9.667,-1.4215,61.893,171,148,112
-9.6664,-0.94896,62.124,154,136,84
-9.6659,-0.65122,61.841,31,45,59
-9.6656,-0.96537,62.165,175,160,116
-9.6655,-0.97294,62.128,155,136,79
-9.6653,-1.4248,62.003,184,164,129
-9.665,-1.1658,62.074,175,153,110
-9.665,-1.1666,62.019,65,55,35
-9.6646,-1.4173,61.885,168,145,111
-9.6644,-0.43988,62.015,34,34,25
-9.6642,-1.1115,62.231,47,39,20
-9.6642,-0.66151,61.844,29,42,56
-9.6638,-1.4057,61.87,173,152,119
-9.6637,-0.92129,62.096,186,167,127
-9.6635,-0.51699,61.9,30,32,31
-9.6635,-1.3571,61.973,182,158,125
-9.6632,-0.62253,61.835,16,21,26
-9.6629,-1.1318,62.153,51,41,23
-9.6629,-1.17,62.058,162,145,107
-9.6628,-0.68003,61.853,46,64,86
-9.6628,-0.94285,62.081,199,179,139
-9.6626,-1.2299,61.951,95,75,50
-9.6625,-0.94317,62.249,147,127,55
-9.6624,-1.3622,61.86,206,186,154
-9.6622,-0.99539,62.139,169,151,95
-9.6622,-0.99334,62.175,193,179,137
-9.6622,-1.1741,61.983,154,128,90
-9.6621,-0.91424,62.219,146,136,113
-9.6616,-0.87757,62.101,185,169,133
-9.6611,-0.74583,61.864,45,57,73
-9.6609,-1.0377,62.194,185,173,136
-9.6606,-0.9637,62.067,208,187,144
-9.6603,-1.386,61.849,203,185,156
-9.6601,-0.89547,62.091,176,161,124
-9.66,-0.98138,62.078,194,174,130
-9.6599,-0.92648,62.058,218,196,152
-9.659,-0.90163,62.064,220,201,162
-9.659,-0.65421,61.827,21,32,43
-9.6587,-0.91523,62.243,129,112,58
-9.6583,-1.021,62.143,164,148,94
-9.6582,-1.1393,62.128,111,89,56
-9.6579,-0.74734,61.857,44,54,68
-9.6579,-0.87972,62.077,214,196,160
-9.6575,-1.2442,61.95,164,140,106
-9.6574,-0.73498,61.854,51,64,81
-9.657,-0.99424,62.237,143,122,52
-9.6565,-0.88756,62.062,220,202,164
-9.6562,-0.95194,62.208,163,154,130
-9.6561,-0.6991,61.85,51,72,99
-9.6556,-1.0101,62.114,160,143,88
-9.6552,-1.1793,61.977,154,130,92
-9.6551,-1.4116,62.04,167,152,125
-9.655,-1.4011,61.851,214,197,169
-9.655,-0.87535,62.048,218,195,151
-9.6549,-0.78102,61.935,78,69,63
-9.6549,-0.9785,62.041,223,201,157
-9.6546,-0.74276,61.849,47,59,74
-9.6545,-0.89982,62.047,221,202,162
-9.6545,-0.62876,61.827,13,20,25
-9.6544,-1.09,62.243,73,61,29
-9.6544,-1.0599,62.18,191,178,139
-9.6543,-0.88938,62.048,221,201,162
-9.6541,-1.0042,62.092,199,180,141
-9.654,-1.1627,62.052,154,133,95
-9.654,-0.64388,61.82,15,24,32
-9.6537,-1.2307,61.944,93,72,47
-9.6536,-1.3723,61.838,200,183,158
-9.6533,-1.1623,62.06,176,153,109
-9.6531,-0.57405,61.862,10,11,14
-9.653,-0.92631,62.251,137,119,59
-9.6526,-0.85078,62.04,216,193,148
-9.6524,-1.2861,62.112,104,89,65
-9.6523,-1.0949,62.2,105,99,72
-9.6523,-0.67795,61.822,42,58,79
-9.6521,-0.8244,62.029,218,194,150
-9.6521,-1.2931,62.215,110,99,80
-9.652,-0.50227,61.906,56,56,53
-9.652,-1.2718,62.176,193,169,127
-9.6519,-1.3604,61.852,204,185,157
-9.6512,-1.1053,62.161,158,148,120
-9.6512,-1.0119,62.101,174,159,120
-9.6511,-1.005,62.053,222,200,155
-9.6511,-1.0187,62.109,161,144,97
-9.6511,-0.99295,62.22,139,119,66
-9.651,-1.4256,61.896,194,173,137
-9.6508,-1.2153,61.961,47,37,21
-9.6507,-0.91795,62.251,130,113,58
-9.6506,-1.0008,62.23,131,110,48
-9.6506,-0.55185,61.879,10,11,12
-9.6502,-0.70539,61.838,52,71,96
-9.6501,-0.75737,61.852,38,46,56
-9.65,-1.0656,62.141,167,151,96
-9.6496,-0.66219,61.812,15,24,33
-9.6496,-0.75952,61.823,45,56,69
-9.6494,-1.4344,61.926,223,200,160
-9.6491,-1.0353,62.11,150,132,82
-9.649,-0.73639,61.832,47,59,74
-9.6489,-1.1506,62.014,121,96,64
-9.6488,-0.53677,61.887,13,15,15
-9.6485,-0.89288,62.034,220,199,159
-9.6483,-0.53569,61.862,8,9,9
-9.6483,-0.46808,61.97,16,16,12
-9.6481,-1.3876,61.823,196,183,164
-9.648,-1.0164,62.092,193,177,145
-9.6479,-0.77003,61.812,52,53,58
-9.6475,-0.54879,61.87,10,12,12
-9.6471,-0.65483,61.807,12,20,27
-9.6471,-1.4688,62.218,72,69,57
-9.647,-1.0795,62.226,131,114,46
-9.647,-1.1293,62.13,55,44,24
-9.6469,-1.2406,61.935,155,130,99
-9.6468,-1.0231,62.083,196,178,139
-9.6468,-0.51707,61.863,12,14,12
-9.6468,-0.68457,61.806,31,44,61
-9.6467,-0.63247,61.815,12,20,26
-9.6467,-1.1501,62.05,85,71,46
-9.6465,-1.0226,62.098,182,166,128
-9.6465,-0.69968,61.809,48,65,88
-9.6464,-1.0211,62.048,220,198,152
-9.6463,-1.0229,62.094,190,174,137
-9.6462,-1.0923,62.232,115,100,45
-9.6462,-0.92467,62.252,136,119,59
-9.6461,-1.0173,62.039,221,200,155
-9.6461,-0.71995,61.819,54,72,95
-9.6458,-0.86069,62.024,219,196,152
-9.6457,-0.80504,61.986,207,181,142
-9.6457,-0.91699,62.033,222,205,169
-9.6452,-0.4809,61.933,24,24,22
-9.6449,-1.0645,62.108,124,111,83
-9.6448,-1.2375,61.822,197,175,136
-9.6448,-1.2415,61.836,195,172,135
-9.6446,-0.93531,62.254,144,124,56
-9.6445,-0.66659,61.803,14,23,32
-9.6445,-1.2896,62.052,119,102,76
-9.6442,-1.0396,62.06,219,197,151
-9.6442,-0.76024,61.799,34,42,51
-9.6438,-1.4415,62.038,222,197,152
-9.6438,-0.72988,61.807,50,63,80
-9.6435,-1.1305,62.032,195,169,122
-9.6435,-1.1223,62.092,143,126,105
-9.6435,-0.93054,62.027,217,197,156
-9.6433,-1.1073,62.124,81,72,42
-9.6432,-1.0518,62.077,212,190,146
-9.6432,-1.0227,62.037,221,200,156
-9.643,-0.69254,61.791,27,40,54
-9.6428,-0.6364,61.807,11,19,25
-9.6428,-0.88764,62.019,220,199,159
-9.6427,-0.6164,61.829,7,11,14
-9.6426,-1.3564,62.026,150,129,102
-9.6426,-1.0711,62.055,217,193,146
-9.6426,-1.4016,61.833,178,168,150
-9.6425,-1.1942,61.971,65,54,35
-9.6423,-1.2338,61.83,196,173,136
-9.6423,-1.0465,62.047,218,196,152
-9.6422,-0.87198,62.016,220,200,159
-9.6422,-0.70699,61.787,32,46,62
-9.6421,-0.97763,62.241,143,121,53
-9.642,-0.93875,62.249,144,124,56
-9.6419,-0.96197,62.248,148,127,54
-9.6419,-0.65918,61.799,12,19,26
-9.6419,-1.2456,61.827,176,156,120
-9.6418,-1.3718,62.059,157,143,121
-9.6418,-0.53094,61.839,7,10,12
-9.6417,-0.9546,62.021,218,196,151
-9.6414,-1.0747,62.085,184,165,125
-9.6414,-0.94726,62.253,147,127,53
-9.6413,-1.2343,61.846,195,170,133
-9.6413,-0.95981,62.239,140,119,56
-9.6409,-1.0109,62.027,222,201,158
-9.6406,-0.50771,61.887,34,36,33
-9.6405,-0.7326,61.792,50,63,81
-9.6404,-1.3708,62.174,110,103,90
-9.6402,-1.0819,62.031,193,166,120
-9.6402,-1.2242,61.958,79,60,38
-9.6401,-1.3429,62.188,98,90,77
-9.6394,-0.57363,61.848,7,9,9
-9.6393,-1.4429,61.985,223,198,151
-9.6392,-0.51206,61.849,8,11,11
-9.639,-0.77147,61.82,52,53,58
-9.639,-1.2422,61.868,182,158,123
-9.6388,-1.2855,62.182,151,132,101
-9.6387,-0.91462,62.02,220,200,161
-9.6384,-1.2474,61.902,167,145,113
-9.6384,-1.3481,61.911,197,177,146
-9.6383,-0.88069,62.008,220,200,160
-9.6382,-0.89813,62.012,220,199,160
-9.6381,-0.66689,61.791,13,20,28
-9.6379,-1.3557,62.043,153,134,108
-9.6378,-1.1551,61.992,117,97,62
-9.6378,-1.3015,62.192,125,112,94
-9.6375,-0.82151,61.998,217,193,147
-9.6373,-1.3512,61.872,202,185,157
-9.6371,-1.4232,62.082,111,105,90
-9.637,-1.2326,61.859,173,146,110
-9.6366,-1.4217,61.879,177,157,125
-9.6366,-0.74626,61.78,38,47,57
-9.6365,-1.2387,61.807,210,183,144
-9.6361,-1.2907,62.163,119,103,77
-9.6359,-0.75767,61.782,33,39,47
-9.6359,-0.64962,61.793,11,19,25
-9.6356,-0.50021,61.874,16,18,16
-9.6354,-1.2507,61.847,155,136,105
-9.6348,-1.2888,62.01,153,134,108
-9.6347,-1.4471,62.076,128,123,109
-9.6346,-0.68511,61.778,17,25,34
-9.6344,-1.1389,62.007,109,91,58
-9.6342,-1.3893,61.822,180,169,153
-9.6342,-1.0419,62.026,204,179,134
-9.6342,-1.4553,62.198,94,89,80
-9.6341,-0.6314,61.798,11,18,24
-9.6339,-1.3548,62.059,154,136,114
-9.6334,-0.87264,61.998,220,200,159
-9.6334,-1.3275,62.13,86,79,66
-9.6332,-1.2721,61.962,146,126,98
-9.6332,-0.89197,61.999,220,200,161
-9.6332,-0.59286,61.841,7,8,8
-9.6329,-1.3089,62.082,103,94,81
-9.6326,-0.77355,61.887,67,67,70
-9.6325,-1.3512,61.992,164,141,109
-9.632,-1.2307,61.877,133,108,77
-9.6316,-1.3879,62.115,104,99,87
-9.6316,-1.2321,61.907,68,52,32
-9.6315,-0.94235,62.004,220,198,152
-9.6314,-0.66817,61.781,12,19,26
-9.6314,-1.0028,62.01,222,200,156
-9.6313,-0.75781,61.775,34,39,46
-9.6313,-1.3154,62.164,128,118,103
-9.6312,-1.2279,61.844,142,118,86
-9.6307,-0.77067,61.789,52,51,53
-9.6305,-0.38907,61.935,17,18,15
-9.6303,-0.73262,61.778,42,51,63
-9.6302,-1.104,62.008,195,167,121
-9.6302,-1.3658,61.824,189,178,162
-9.63,-1.2273,61.858,161,134,100
-9.6299,-1.4582,62.071,218,202,172
-9.6298,-1.3495,62.036,141,123,99
-9.6298,-1.4563,62.089,97,97,86
-9.6296,-1.4054,61.837,195,180,153
-9.6295,-1.2275,61.82,183,157,121
-9.6287,-0.45821,61.963,15,16,13
-9.6285,-0.75757,61.773,31,35,42
-9.6282,-1.0809,62.007,205,179,131
-9.6279,-1.435,62.16,157,150,138
-9.6274,-1.3484,62.065,163,147,124
-9.6274,-0.84655,61.989,220,199,157
-9.6271,-1.3479,62.009,151,130,103
-9.627,-1.1177,62.004,208,180,132
-9.6269,-1.3455,62.069,158,145,123
-9.6265,-1.4556,62.123,96,93,81
-9.6265,-0.71066,61.769,26,32,38
-9.6258,-1.3364,62.082,127,117,101
-9.6256,-0.90729,61.987,221,201,163
-9.6249,-0.68345,61.772,13,21,28
-9.6247,-0.76301,61.774,43,45,48
-9.6246,-1.1699,61.979,130,110,77
-9.6246,-0.77586,61.802,64,59,56
-9.6243,-1.4639,62.154,206,199,185
-9.6243,-0.75131,61.775,23,28,34
-9.6242,-1.1013,62,188,162,117
-9.6238,-0.66217,61.778,12,18,24
-9.6237,-1.2437,61.803,187,165,130
-9.6228,-0.98499,61.992,221,201,161
-9.6227,-0.60948,61.814,5,5,5
-9.6226,-1.3439,62.058,144,127,104
-9.6222,-1.2345,61.801,193,168,131
-9.6221,-0.57508,61.828,8,9,10
-9.6212,-0.92966,61.984,220,200,161
-9.6211,-0.95407,61.985,219,196,151
-9.6203,-0.62689,61.791,10,17,22
-9.62,-1.3429,62.029,146,128,104
-9.6199,-1.3224,62.056,147,130,108
-9.6197,-1.1351,61.997,198,172,125
-9.6195,-0.80152,61.975,196,172,136
-9.6194,-1.15,61.992,200,175,128
-9.6194,-0.77675,61.84,108,95,86
-9.619,-1.2551,61.832,145,129,103
-9.619,-1.3369,62.066,162,145,121
-9.6184,-0.64743,61.779,10,18,24
-9.6181,-1.2635,61.884,142,125,100
-9.6179,-1.4687,62.058,216,205,180
-9.6177,-0.43694,61.974,16,17,14
-9.6175,-0.87764,61.976,214,193,155
-9.6174,-0.51197,61.835,7,10,12
-9.6173,-0.79023,61.943,113,100,89
-9.6169,-0.66922,61.775,11,17,22
-9.6168,-0.94032,61.979,217,196,153
-9.6167,-1.2262,61.812,153,128,95
-9.6166,-1.2219,61.836,102,80,53
-9.6166,-0.54674,61.825,9,11,13
-9.6166,-0.77553,61.784,55,50,47
-9.6161,-1.3336,62.048,148,130,107
-9.6156,-1.2737,61.929,138,120,95
-9.6155,-1.2034,61.968,37,30,18
-9.6153,-1.2343,61.753,181,158,116
-9.6153,-0.50111,61.84,10,13,13
-9.6146,-0.42175,61.967,16,17,16
-9.6141,-1.2325,61.746,182,158,116
-9.614,-1.1585,61.983,187,164,120
-9.6137,-1.0949,61.986,211,185,139
-9.6136,-0.58923,61.81,6,8,7
-9.6128,-1.142,61.993,207,179,132
-9.6123,-1.1487,61.989,207,180,132
-9.6123,-0.96806,61.977,218,196,151
-9.6119,-1.3264,62.026,156,138,112
-9.6116,-1.3159,62.009,161,142,116
-9.6111,-1.4637,62.025,222,198,153
-9.6106,-0.68376,61.775,11,16,20
-9.6104,-1.3317,62.008,160,141,111
-9.6101,-1.2353,61.764,182,160,123
-9.6095,-1.2374,61.743,173,152,115
-9.6094,-1.084,61.98,221,195,145
-9.6091,-1.2953,61.97,140,121,93
-9.6088,-1.0281,61.975,216,196,158
-9.6083,-0.57544,61.811,8,10,11
-9.6083,-1.2246,61.932,55,41,25
-9.6081,-0.46551,61.908,60,59,55
-9.6081,-1.2164,61.878,50,38,23
-9.608,-1.135,61.982,219,191,138
-9.608,-0.92297,61.974,214,194,157
-9.6079,-1.2189,61.954,42,33,19
-9.6078,-1.1095,61.979,219,193,142
-9.6077,-0.62247,61.79,9,12,14
-9.6067,-1.2323,61.728,181,158,120
-9.6062,-1.2292,61.789,200,174,136
-9.6055,-0.8065,61.977,213,194,160
-9.6051,-1.4607,61.996,224,199,153
-9.6049,-1.1587,61.973,132,114,81
-9.6044,-1.2264,61.748,187,163,121
-9.6041,-0.47801,61.859,13,16,17
-9.604,-1.24,61.729,159,140,109
-9.6039,-0.93088,61.97,212,193,159
-9.6038,-0.90882,61.972,199,179,145
-9.6037,-1.2462,61.786,171,152,122
-9.6027,-0.87871,61.968,194,174,139
-9.6026,-0.83524,61.971,163,148,122
-9.6023,-0.77022,61.773,27,31,33
-9.6019,-1.2307,61.715,184,162,123
-9.6013,-1.4565,61.974,223,198,152
-9.6013,-0.58552,61.804,7,9,8
-9.6009,-1.241,61.715,163,143,110
-9.6005,-1.342,61.969,155,135,107
-9.6002,-0.77713,61.788,70,62,54
-9.5997,-1.3219,61.983,167,146,116
-9.5992,-1.3841,61.829,192,183,170
-9.599,-1.172,61.961,87,75,50
-9.5988,-1.3614,61.831,206,198,182
-9.5988,-1.2128,61.91,43,35,21
-9.5986,-1.206,61.875,41,33,21
-9.5983,-1.2143,61.943,44,34,20
-9.5979,-0.79836,61.967,157,139,115
-9.5977,-1.0887,61.968,221,195,145
-9.5972,-1.3447,61.943,159,140,111
-9.597,-1.2291,61.703,189,166,126
-9.5965,-1.1373,61.962,214,186,132
-9.5964,-1.0715,61.964,207,183,137
-9.5963,-0.44195,61.932,11,12,11
-9.5963,-1.2376,61.704,164,144,110
-9.5959,-0.42733,61.939,14,15,13
-9.5957,-0.94499,61.966,216,196,159
-9.5956,-1.1817,61.887,49,42,27
-9.5955,-0.75384,61.774,27,31,32
-9.5954,-1.12,61.965,221,194,143
-9.5953,-1.3526,61.85,208,197,180
-9.5945,-1.2038,61.959,39,32,19
-9.5945,-1.1454,61.954,214,187,134
-9.5942,-1.1908,61.868,41,34,22
-9.5941,-0.43068,61.945,12,13,12
-9.5939,-1.2088,61.856,40,35,22
-9.5938,-1.1679,61.946,76,67,46
-9.5934,-1.2192,61.821,81,61,38
-9.5934,-1.182,61.91,44,37,24
-9.5933,-1.2239,61.781,182,156,119
-9.5925,-1.4597,61.97,221,197,152
-9.5923,-1.1981,61.921,41,34,21
-9.5922,-1.4514,61.95,222,198,153
-9.5919,-1.1692,61.926,47,40,25
-9.5918,-1.2469,61.738,146,128,102
-9.5914,-0.92453,61.968,215,201,174
-9.5911,-1.2199,61.718,168,143,110
-9.5907,-1.1639,61.883,138,119,83
-9.5906,-1.2339,61.688,197,173,133
-9.5902,-0.78417,61.86,110,98,86
-9.5894,-1.2974,61.946,161,139,108
-9.5891,-1.2893,61.923,156,140,119
-9.5879,-1.1459,61.937,185,161,115
-9.5878,-0.59401,61.798,12,14,14
-9.5875,-1.2443,61.707,133,116,89
-9.5871,-0.65808,61.787,10,13,15
-9.5862,-1.1028,61.961,215,194,154
-9.5859,-0.42587,61.873,20,22,19
-9.5858,-1.0303,61.961,211,189,150
-9.5845,-0.50789,61.824,9,11,14
-9.584,-0.9738,61.966,208,189,155
-9.5834,-1.4635,61.967,224,201,158
-9.5834,-1.1292,61.953,183,164,128
-9.5829,-0.80624,61.972,113,105,84
-9.5819,-0.6744,61.787,11,13,14
-9.5813,-1.2748,61.868,149,137,121
-9.5811,-0.70002,61.785,13,16,16
-9.581,-0.63055,61.789,10,12,12
-9.5807,-1.4314,61.891,218,210,194
-9.5803,-0.7211,61.784,15,16,16
-9.5793,-1.0048,61.964,208,190,158
-9.5792,-0.88495,61.967,195,179,153
-9.5791,-1.0521,61.958,211,192,159
-9.5789,-1.2205,61.68,200,176,135
-9.5788,-1.3228,61.959,167,145,113
-9.5787,-0.48059,61.824,15,19,21
-9.578,-1.2154,61.824,62,45,26
-9.5779,-1.2299,61.671,186,165,128
-9.5779,-1.1736,61.859,127,111,80
-9.5774,-1.3359,61.956,177,158,131
-9.5768,-1.0843,61.959,213,198,168
-9.5765,-0.80115,61.967,156,144,121
-9.5765,-1.2668,61.818,157,145,127
-9.5753,-0.60557,61.791,34,38,36
-9.5753,-1.0995,61.958,220,205,175
-9.5749,-0.49784,61.819,11,14,16
-9.5747,-1.2104,61.753,60,46,28
-9.5744,-0.57715,61.805,14,18,18
-9.5738,-0.95191,61.968,190,178,154
-9.5738,-0.65408,61.789,18,20,20
-9.5727,-1.1377,61.911,202,176,129
-9.5726,-0.91998,61.969,80,74,55
-9.5714,-1.204,61.727,43,34,19
-9.5713,-0.79862,61.942,139,125,103
-9.5707,-0.46664,61.822,23,27,29
-9.5701,-1.174,61.739,34,29,18
-9.5699,-0.74697,61.772,50,52,49
-9.5698,-1.1988,61.742,34,28,17
-9.5695,-0.67304,61.789,24,27,27
-9.5694,-0.52121,61.814,27,30,30
-9.5693,-0.5515,61.817,9,12,15
-9.5692,-1.3105,61.936,155,141,123
-9.5685,-0.78748,61.842,123,107,91
-9.5683,-1.34,61.893,189,177,161
-9.5682,-0.56334,61.813,9,12,14
-9.5681,-0.73273,61.779,26,26,24
-9.568,-0.50524,61.813,20,23,23
-9.5676,-0.44121,61.811,29,33,33
-9.5676,-0.77375,61.771,49,51,46
-9.5669,-0.82806,61.976,108,99,79
-9.5668,-0.78478,61.807,106,92,78
-9.5665,-1.1815,61.723,54,46,32
-9.5665,-1.2098,61.772,40,31,18
-9.566,-0.61613,61.787,35,39,37
-9.5658,-1.2049,61.706,50,39,22
-9.5658,-0.46753,61.811,34,39,40
-9.5653,-1.2247,61.667,188,163,124
-9.565,-1.4495,61.933,221,204,171
-9.5648,-1.1761,61.757,33,28,17
-9.5647,-1.1399,61.867,119,97,62
-9.5647,-1.1959,61.717,43,38,23
-9.5638,-0.49088,61.806,23,28,29
-9.5635,-1.2161,61.802,59,44,26
-9.5629,-0.7089,61.786,15,17,15
-9.5627,-0.508,61.806,36,39,39
-9.5621,-1.2128,61.814,40,31,18
-9.5619,-1.3375,61.932,175,161,140
-9.5617,-1.2106,61.782,35,28,17
-9.5607,-0.47492,61.8,46,51,52
-9.5606,-1.1946,61.772,33,27,16
-9.5606,-0.454,61.811,43,48,49
-9.5604,-0.69478,61.784,38,41,41
-9.56,-0.66186,61.785,36,39,39
-9.56,-0.54334,61.807,31,35,34
-9.5599,-1.2436,61.679,144,127,98
-9.5597,-0.72465,61.78,23,24,21
-9.5595,-0.55408,61.808,20,24,24
-9.5594,-0.81614,61.975,105,98,76
-9.5588,-1.1645,61.749,38,33,21
-9.5586,-0.47541,61.793,54,59,62
-9.5583,-0.4571,61.793,50,55,56
-9.5577,-1.1273,61.895,140,120,87
-9.5572,-0.5132,61.794,50,54,54
-9.5571,-0.48359,61.789,54,59,61
-9.5571,-0.63495,61.783,37,40,39
-9.557,-1.3256,61.933,154,143,127
-9.5569,-1.232,61.662,177,155,118
-9.5569,-0.58641,61.79,56,59,59
-9.5565,-1.1968,61.704,53,46,30
-9.5564,-1.1027,61.961,196,182,152
-9.5564,-0.71362,61.784,37,39,36
-9.5564,-1.1593,61.733,79,67,47
-9.5561,-0.37234,61.8,13,15,15
-9.5559,-0.46506,61.784,54,59,61
-9.5557,-0.67851,61.783,41,44,44
-9.5557,-0.7954,61.901,127,110,92
-9.5554,-0.44761,61.793,48,54,55
-9.5554,-0.78774,61.792,123,111,89
-9.555,-0.64955,61.782,43,46,45
-9.5547,-0.70684,61.784,46,48,47
-9.5532,-0.74394,61.757,60,62,60
-9.553,-0.44855,61.791,52,57,60
-9.5523,-0.78644,61.776,67,66,60
-9.5523,-1.1648,61.715,86,76,54
-9.5523,-0.808,61.966,111,101,68
-9.552,-1.2409,61.668,146,128,96
-9.5518,-0.79069,61.825,126,115,94
-9.5517,-0.57806,61.787,56,60,60
-9.5516,-1.1984,61.796,33,28,17
-9.5516,-0.61035,61.78,41,44,43
-9.5514,-0.42137,61.781,37,41,43
-9.5514,-0.32326,61.523,17,19,19
-9.5507,-1.1537,61.84,102,88,58
-9.5504,-1.2029,61.814,34,27,16
-9.5501,-0.52953,61.782,57,61,62
-9.5501,-0.55774,61.786,55,60,61
-9.5495,-1.2004,61.833,51,44,28
-9.5494,-0.71515,61.773,48,51,47
-9.5492,-0.69692,61.774,51,54,53
-9.5492,-1.2025,61.69,52,41,24
-9.5491,-1.2999,61.905,155,145,130
-9.5491,-1.1415,61.845,192,165,116
-9.5489,-0.49937,61.776,56,60,61
-9.5489,-1.1715,61.784,34,29,18
-9.5487,-0.46962,61.773,56,61,64
-9.5487,-1.1336,61.855,197,169,119
-9.5486,-0.64997,61.774,44,47,46
-9.5486,-0.635,61.775,44,47,46
-9.5485,-0.48327,61.774,57,61,63
-9.5485,-0.75918,61.739,49,51,47
-9.5482,-1.1175,61.953,83,64,38
