-15.881,-3.3403,68.239,80,69,40
-15.881,-3.7309,68.38,238,223,198
-15.881,-3.5464,68.216,131,102,74
-15.88,-4.012,68.497,102,106,101
-15.879,-4.0347,68.5,91,92,93
-15.879,-3.7625,68.383,240,224,198
-15.878,-3.8748,68.422,208,195,184
-15.878,-3.6941,68.35,238,224,203
-15.877,-3.5082,68.195,129,94,64
-15.877,-4.0935,68.527,78,81,82
-15.877,-3.6093,68.301,145,131,110
-15.875,-3.8544,68.401,214,206,189
-15.874,-4.1093,68.528,85,87,88
-15.874,-3.3504,68.169,184,173,140
-15.874,-3.6647,68.337,238,224,202
-15.874,-3.8159,68.35,150,140,113
-15.874,-3.5283,68.192,128,99,71
-15.873,-3.3512,68.144,204,188,156
-15.872,-3.3314,68.247,76,63,41
-15.871,-3.6555,68.335,238,225,204
-15.871,-3.641,68.327,212,203,181
-15.871,-3.455,68.191,179,116,52
-15.871,-3.3172,68.264,162,138,107
-15.871,-3.3481,68.156,187,175,141
-15.87,-3.3801,68.16,121,104,86
-15.87,-3.3616,68.143,187,167,141
-15.869,-4.1252,68.527,88,89,91
-15.867,-3.4083,68.179,86,81,66
-15.866,-3.3489,68.129,207,188,156
-15.866,-3.2915,68.249,209,192,154
-15.866,-3.8446,68.373,215,205,189
-15.866,-3.343,68.137,207,190,156
-15.866,-3.4371,68.184,166,120,59
-15.865,-3.3407,68.211,68,59,35
-15.864,-3.2517,68.288,66,59,49
-15.864,-3.6753,68.338,239,227,207
-15.864,-3.5279,68.179,130,99,70
-15.863,-4.0649,68.512,111,113,110
-15.862,-4.0158,68.505,117,117,114
-15.862,-3.6579,68.335,238,228,208
-15.862,-4.0966,68.515,88,91,91
-15.861,-3.3427,68.117,201,183,149
-15.86,-3.5153,68.174,138,96,59
-15.859,-3.5387,68.179,127,98,71
-15.859,-3.3447,68.183,142,130,97
-15.859,-3.3133,68.25,199,176,138
-15.858,-4.1356,68.522,104,107,106
-15.858,-3.5625,68.209,120,91,62
-15.858,-3.8332,68.35,235,226,212
-15.857,-3.3411,68.111,207,189,156
-15.857,-3.2734,68.224,208,190,150
-15.857,-3.7849,68.354,193,170,151
-15.857,-3.4748,68.172,173,116,55
-15.857,-3.3295,68.233,60,51,31
-15.856,-3.6342,68.326,158,153,135
-15.856,-3.9825,68.493,153,153,148
-15.856,-3.3409,68.123,194,181,147
-15.856,-3.4625,68.172,173,119,57
-15.856,-3.3487,68.111,213,193,162
-15.855,-3.4199,68.171,112,100,62
-15.854,-3.2634,68.259,70,59,48
-15.854,-3.2526,68.277,73,64,53
-15.853,-3.6488,68.333,198,193,175
-15.853,-3.7639,68.347,240,224,200
-15.852,-3.4935,68.166,166,108,54
-15.852,-3.3172,68.238,163,141,109
-15.851,-3.4027,68.159,92,87,71
-15.85,-3.4384,68.168,135,112,59
-15.849,-4.1649,68.528,85,86,89
-15.849,-3.3454,68.104,218,200,167
-15.848,-3.6258,68.318,132,118,102
-15.848,-3.4513,68.164,162,119,58
-15.847,-3.3416,68.108,204,185,152
-15.847,-3.8594,68.365,205,191,179
-15.847,-3.7302,68.334,241,230,213
-15.847,-3.2624,68.234,163,154,117
-15.847,-3.815,68.339,205,199,176
-15.847,-3.5975,68.261,125,95,60
-15.846,-3.5353,68.156,125,96,70
-15.844,-3.7726,68.336,236,220,200
-15.844,-3.3091,68.232,177,153,120
-15.843,-3.5513,68.167,111,84,53
-15.842,-3.3208,68.229,74,63,44
-15.842,-4.1138,68.518,124,126,123
-15.841,-4.0212,68.522,141,140,138
-15.841,-3.8071,68.335,154,135,112
-15.84,-3.3407,68.174,56,48,27
-15.84,-3.5152,68.149,132,101,72
-15.839,-3.6792,68.332,216,197,172
-15.838,-3.4379,68.154,145,113,56
-15.838,-3.2608,68.193,213,194,154
-15.838,-3.621,68.302,126,102,79
-15.838,-3.4956,68.149,176,123,73
-15.838,-4.142,68.522,110,112,112
-15.838,-3.3698,68.114,182,159,133
-15.838,-3.3052,68.221,190,165,133
-15.835,-3.3402,68.147,135,119,88
-15.834,-3.9162,68.422,148,141,130
-15.833,-3.461,68.144,178,119,55
-15.833,-3.5339,68.144,122,94,68
-15.832,-3.4125,68.145,112,100,59
-15.831,-3.3472,68.102,190,175,142
-15.831,-3.8352,68.336,219,211,192
-15.829,-3.7897,68.323,203,180,159
-15.829,-3.5432,68.145,111,85,56
-15.828,-3.3396,68.122,125,114,79
-15.828,-4.0941,68.523,161,161,158
-15.826,-3.2518,68.21,100,94,65
-15.825,-3.2515,68.192,146,139,104
-15.825,-3.6372,68.323,169,116,60
-15.824,-4.1191,68.521,150,150,148
-15.824,-4.2518,68.526,79,82,85
-15.823,-3.5186,68.136,178,126,79
-15.823,-3.3372,68.15,122,108,77
-15.823,-3.3044,68.203,211,193,152
-15.823,-3.3245,68.199,146,124,97
-15.823,-3.5577,68.16,120,89,54
-15.822,-3.7666,68.315,219,194,173
-15.821,-3.4895,68.129,184,129,76
-15.82,-3.3762,68.104,123,102,74
-15.819,-3.4044,68.122,169,119,63
-15.817,-3.2562,68.18,184,173,138
-15.816,-3.8738,68.352,188,174,164
-15.815,-3.6283,68.284,127,95,63
-15.814,-3.5849,68.193,130,97,58
-15.814,-3.3398,68.106,168,155,121
-15.814,-3.2708,68.177,207,190,154
-15.812,-4.2965,68.528,139,143,133
-15.811,-3.4238,68.122,187,148,98
-15.811,-3.2917,68.184,213,191,153
-15.811,-3.8097,68.304,174,167,140
-15.811,-3.4919,68.117,183,129,77
-15.811,-3.466,68.12,192,143,94
-15.81,-4.1294,68.524,193,194,190
-15.81,-3.5443,68.142,130,102,76
-15.809,-4.2398,68.519,190,190,187
-15.808,-3.853,68.327,213,202,188
-15.808,-3.3157,68.189,99,82,60
-15.808,-4.2583,68.513,151,141,149
-15.806,-3.3213,68.183,63,53,35
-15.805,-3.3028,68.185,209,184,149
-15.803,-3.4381,68.113,198,154,107
-15.802,-3.4797,68.109,203,162,119
-15.802,-3.4688,68.109,210,172,131
-15.802,-3.2952,68.178,214,191,152
-15.801,-3.3619,68.079,177,156,132
-15.801,-3.7656,68.302,202,192,163
-15.801,-3.8369,68.304,212,204,186
-15.801,-3.722,68.323,165,107,51
-15.801,-3.252,68.171,167,157,122
-15.8,-3.6948,68.329,187,137,84
-15.8,-3.4536,68.108,195,162,119
-15.799,-3.3121,68.178,112,92,68
-15.799,-3.4608,68.107,215,181,140
-15.798,-3.3811,68.087,112,95,72
-15.797,-3.4105,68.103,171,157,117
-15.797,-3.3613,68.073,187,165,142
-15.796,-3.3447,68.079,200,183,151
-15.796,-3.7474,68.308,100,74,38
-15.795,-3.4287,68.103,168,146,111
-15.795,-3.289,68.169,212,192,150
-15.795,-4.342,68.524,98,112,137
-15.795,-3.3237,68.155,75,65,39
-15.795,-3.5025,68.102,160,143,124
-15.795,-3.3693,68.076,141,121,100
-15.795,-3.5858,68.182,139,102,61
-15.794,-3.6221,68.236,156,111,62
-15.794,-4.1468,68.524,200,201,198
-15.794,-4.1135,68.521,156,154,157
-15.794,-3.7974,68.263,145,132,106
-15.793,-4.3524,68.527,75,99,136
-15.793,-4.2128,68.522,196,197,197
-15.792,-3.7704,68.288,212,189,167
-15.792,-3.4593,68.098,192,173,139
-15.792,-3.3283,68.121,92,78,47
-15.791,-4.1978,68.524,227,224,224
-15.789,-4.3523,68.523,71,96,135
-15.789,-3.358,68.062,193,171,144
-15.789,-3.7331,68.309,102,64,29
-15.788,-3.3458,68.053,136,124,93
-15.788,-3.2722,68.158,206,188,148
-15.787,-3.2551,68.157,213,196,159
-15.787,-3.4766,68.092,205,185,156
-15.787,-3.7154,68.314,162,103,49
-15.787,-3.4012,68.089,162,154,124
-15.787,-3.3018,68.161,176,153,117
-15.786,-4.1798,68.523,180,181,193
-15.786,-3.3293,68.106,105,89,58
-15.786,-3.6898,68.305,195,128,51
-15.784,-4.0043,68.49,172,172,170
-15.784,-3.8194,68.246,226,212,200
-15.783,-3.7594,68.286,232,224,202
-15.782,-3.5157,68.09,147,133,116
-15.782,-3.6627,68.273,175,117,58
-15.782,-4.2604,68.508,132,131,129
-15.781,-3.7445,68.293,120,99,62
-15.781,-3.7624,68.275,240,227,208
-15.781,-3.4418,68.086,127,116,82
-15.78,-3.4561,68.086,154,146,110
-15.78,-3.7227,68.29,169,109,53
-15.779,-3.2981,68.154,116,92,70
-15.779,-3.5403,68.112,153,142,125
-15.778,-3.9625,68.437,141,145,133
-15.778,-4.3081,68.513,125,129,141
-15.778,-3.5058,68.082,131,117,100
-15.777,-3.8377,68.261,204,183,175
-15.777,-4.0997,68.503,93,104,120
-15.777,-3.3617,68.054,199,178,151
-15.777,-3.3285,68.093,77,65,37
-15.776,-4.3482,68.513,90,107,136
-15.775,-3.7827,68.247,173,149,132
-15.775,-3.3081,68.147,109,89,65
-15.774,-3.4296,68.082,168,155,125
-15.773,-3.3345,68.069,134,120,88
-15.773,-4.2013,68.511,183,177,177
-15.773,-3.4897,68.081,210,195,168
-15.773,-3.2501,68.14,212,192,149
-15.773,-3.7516,68.274,210,202,175
-15.772,-3.7113,68.268,93,57,24
-15.772,-3.7617,68.252,243,230,213
-15.772,-3.323,68.11,67,55,33
-15.77,-4.1455,68.506,87,102,118
-15.77,-3.4508,68.078,118,113,74
-15.769,-4.0904,68.491,243,242,240
-15.769,-4.0816,68.494,144,146,164
-15.769,-3.3189,68.123,83,69,39
-15.769,-4.2188,68.504,145,142,142
-15.769,-3.4821,68.08,208,196,163
-15.769,-3.3146,68.134,72,60,36
-15.768,-3.3021,68.144,142,118,91
-15.768,-3.8943,68.32,127,119,112
-15.768,-3.4714,68.082,178,169,134
-15.768,-3.7345,68.261,122,102,66
-15.767,-3.4029,68.076,187,179,148
-15.767,-3.2759,68.139,209,188,146
-15.767,-3.487,68.08,212,199,169
-15.767,-3.9275,68.357,122,121,114
-15.766,-4.0315,68.509,184,185,187
-15.766,-3.3831,68.065,132,116,93
-15.766,-3.3495,68.053,191,176,144
-15.765,-3.291,68.14,200,177,138
-15.765,-3.3639,68.051,180,161,135
-15.764,-3.5364,68.076,115,108,86
-15.764,-3.5279,68.076,136,127,107
-15.764,-3.5027,68.077,175,161,137
-15.764,-3.5432,68.084,139,132,110
-15.763,-3.2625,68.13,201,182,139
-15.762,-3.4416,68.077,135,124,94
-15.761,-4.0498,68.502,219,219,219
-15.761,-3.4922,68.079,195,182,152
-15.761,-3.6872,68.26,190,124,50
-15.761,-3.699,68.256,164,106,46
-15.76,-4.3429,68.499,112,120,138
-15.76,-4.1034,68.483,214,213,212
-15.76,-3.2999,68.133,166,144,110
-15.759,-4.0898,68.483,234,234,232
-15.758,-4.0634,68.495,236,235,233
-15.758,-3.4815,68.08,177,168,134
-15.758,-4.032,68.496,223,223,219
-15.758,-3.54,68.075,113,108,86
-15.757,-3.5978,68.169,162,129,90
-15.757,-4.3312,68.5,140,139,140
-15.757,-4.1951,68.495,175,173,178
-15.757,-3.816,68.219,214,203,187
-15.757,-4.2611,68.499,133,134,129
-15.756,-3.3377,68.064,122,110,81
-15.756,-4.3489,68.496,96,111,137
-15.756,-4.3399,68.497,129,131,138
-15.756,-3.7479,68.238,231,217,197
-15.756,-3.4979,68.078,158,146,119
-15.754,-3.6898,68.253,191,126,51
-15.754,-3.5553,68.083,182,178,148
-15.754,-3.7256,68.237,162,150,117
-15.753,-3.5164,68.069,137,128,107
-15.753,-4.1048,68.474,213,211,206
-15.753,-3.2887,68.128,215,194,151
-15.752,-3.3651,68.055,141,128,104
-15.752,-3.9589,68.388,136,138,133
-15.752,-3.6968,68.248,168,109,46
-15.751,-4.0582,68.49,241,241,239
-15.751,-4.0698,68.489,237,236,235
-15.751,-3.4104,68.073,188,178,151
-15.75,-4.1234,68.477,191,189,188
-15.75,-3.5076,68.072,151,139,117
-15.75,-3.5522,68.079,150,146,119
-15.749,-4.1005,68.471,222,223,218
-15.748,-3.4326,68.076,175,161,136
-15.748,-3.5645,68.094,196,190,160
-15.748,-3.3287,68.075,103,91,64
-15.746,-3.734,68.227,164,151,118
-15.746,-4.1103,68.467,221,220,216
-15.746,-3.3055,68.116,182,158,127
-15.746,-4.0442,68.485,234,234,230
-15.745,-4.333,68.487,135,138,138
-15.745,-3.6768,68.247,188,121,48
-15.744,-3.6871,68.246,192,126,50
-15.744,-3.8341,68.21,146,124,119
-15.743,-3.8504,68.232,195,176,167
-15.742,-4.0796,68.477,226,227,222
-15.742,-3.3145,68.097,135,116,90
-15.742,-3.3554,68.057,119,112,90
-15.741,-3.5249,68.065,105,103,85
-15.741,-3.2855,68.116,212,190,150
-15.74,-3.9541,68.348,89,90,91
-15.74,-3.7398,68.216,217,209,185
-15.74,-4.1874,68.476,200,190,196
-15.739,-4.3371,68.478,125,132,142
-15.739,-3.8953,68.288,106,97,93
-15.739,-4.0547,68.478,224,226,221
-15.739,-3.8213,68.193,190,169,162
-15.739,-3.2598,68.1,208,187,142
-15.738,-4.212,68.476,143,146,139
-15.738,-4.1214,68.458,204,205,202
-15.738,-4.0324,68.472,223,225,218
-15.738,-3.6926,68.24,181,119,48
-15.738,-3.639,68.207,199,163,124
-15.737,-3.7262,68.215,135,118,82
-15.737,-3.9368,68.332,93,90,87
-15.737,-3.5646,68.084,200,195,163
-15.737,-3.4912,68.076,149,140,114
-15.737,-3.2734,68.105,218,197,153
-15.737,-4.0007,68.333,87,90,87
-15.736,-3.4665,68.079,151,146,126
-15.735,-3.5432,68.07,129,126,106
-15.735,-4.0898,68.465,215,217,212
-15.734,-3.4189,68.074,127,126,100
-15.734,-3.3885,68.064,118,113,90
-15.734,-3.7968,68.197,237,228,213
-15.734,-3.7364,68.206,243,231,212
-15.734,-3.344,68.063,116,107,83
-15.733,-4.1712,68.466,223,223,220
-15.733,-4.0053,68.348,93,96,94
-15.733,-4.2971,68.484,129,130,125
-15.733,-4.0143,68.334,86,89,89
-15.733,-3.2572,68.092,196,174,130
-15.732,-4.1119,68.455,208,211,206
-15.732,-4.142,68.457,183,184,180
-15.732,-3.9701,68.36,87,90,89
-15.732,-3.2963,68.102,103,86,65
-15.732,-3.7082,68.224,116,72,31
-15.732,-4.1853,68.468,231,230,229
-15.732,-3.9669,68.332,82,84,86
-15.731,-3.7694,68.207,150,138,112
-15.731,-4.3579,68.485,94,112,139
-15.731,-3.5143,68.066,89,86,72
-15.73,-4.0195,68.35,96,99,97
-15.73,-3.9835,68.328,81,83,85
-15.73,-4.1231,68.45,183,187,183
-15.729,-3.5231,68.061,73,74,62
-15.728,-4.1301,68.449,160,165,160
-15.728,-3.813,68.178,215,198,187
-15.728,-4.0502,68.465,217,221,213
-15.727,-3.7295,68.199,216,207,183
-15.727,-3.5936,68.125,212,202,171
-15.726,-4.027,68.333,84,87,87
-15.726,-3.8219,68.177,191,168,163
-15.726,-3.8159,68.171,204,183,176
-15.726,-3.6784,68.23,193,133,73
-15.726,-3.9892,68.406,166,167,164
-15.724,-3.3649,68.059,87,82,61
-15.722,-4.0155,68.447,204,211,205
-15.722,-4.1566,68.454,209,216,208
-15.722,-4.1284,68.445,173,178,173
-15.722,-4.2608,68.472,151,146,147
-15.722,-4.3141,68.461,145,148,144
-15.722,-3.8074,68.178,229,217,203
-15.72,-4.0029,68.323,82,84,86
-15.72,-4.0606,68.352,103,105,103
-15.719,-3.521,68.062,58,58,49
-15.719,-3.7989,68.181,214,206,188
-15.719,-3.6957,68.219,147,95,49
-15.719,-3.5291,68.062,86,87,77
-15.719,-3.3167,68.077,200,180,136
-15.718,-3.3496,68.059,104,102,82
-15.718,-3.7842,68.185,139,126,102
-15.718,-3.6291,68.175,223,209,184
-15.717,-3.7698,68.188,135,113,92
-15.717,-3.9801,68.318,84,86,88
-15.717,-3.2854,68.081,168,156,129
-15.716,-3.8449,68.191,114,99,96
-15.716,-3.8123,68.167,214,198,186
-15.716,-3.7507,68.187,235,218,198
-15.716,-3.71,68.189,230,222,208
-15.715,-3.9337,68.309,84,86,87
-15.715,-4.148,68.447,192,201,193
-15.715,-4.0528,68.335,86,89,89
-15.715,-4.1887,68.458,170,173,177
-15.715,-3.5837,68.096,208,201,172
-15.714,-3.6907,68.202,176,124,79
-15.714,-4.0217,68.324,82,85,86
-15.714,-3.9005,68.269,98,91,89
-15.713,-3.8192,68.16,183,162,156
-15.713,-4.092,68.352,84,86,89
-15.712,-4.0089,68.419,188,185,185
-15.712,-4.2696,68.459,184,184,178
-15.712,-4.2263,68.449,146,140,141
-15.712,-4.162,68.45,213,221,213
-15.712,-4.333,68.452,124,134,144
-15.711,-4.0815,68.38,172,170,171
-15.711,-3.6461,68.189,230,214,195
-15.711,-3.7611,68.179,222,199,175
-15.711,-3.7363,68.183,244,236,222
-15.711,-4.0058,68.391,103,106,108
-15.711,-4.3657,68.473,90,109,140
-15.71,-4.1144,68.439,199,204,200
-15.71,-3.6415,68.184,244,241,228
-15.71,-4.2505,68.448,164,164,157
-15.71,-3.6602,68.193,209,171,137
-15.71,-3.393,68.065,146,142,124
-15.709,-3.3526,67.969,177,159,122
-15.709,-3.7515,68.179,233,214,191
-15.709,-3.6858,68.186,224,206,190
-15.708,-4.2044,68.451,132,138,144
-15.708,-3.8139,68.157,210,192,181
-15.708,-3.4121,68.071,129,127,109
-15.708,-3.6414,68.18,244,240,226
-15.708,-3.7823,68.171,157,144,120
-15.707,-3.8025,68.165,221,211,195
-15.707,-3.6484,68.183,241,232,219
-15.706,-3.4943,68.073,112,107,94
-15.706,-4.0263,68.399,124,124,123
-15.706,-3.7532,68.172,224,202,178
-15.706,-4.0537,68.404,176,174,175
-15.705,-3.5635,68.074,181,177,155
-15.705,-4.2986,68.432,167,162,163
-15.705,-3.9899,68.309,84,86,88
-15.705,-4.0236,68.414,185,179,182
-15.705,-4.0083,68.314,82,85,87
-15.705,-4.0746,68.335,85,88,89
-15.704,-4.2399,68.426,163,161,158
-15.704,-4.128,68.36,110,113,115
-15.704,-4.0729,68.431,189,193,190
-15.703,-3.7431,68.172,240,226,208
-15.703,-3.3483,68.059,98,88,64
-15.702,-3.2527,68.068,202,179,138
-15.702,-4.1608,68.441,205,213,206
-15.702,-3.8113,68.156,220,206,192
-15.702,-3.7325,68.174,246,238,226
-15.702,-3.6422,68.169,242,233,212
-15.702,-3.3326,67.959,140,115,83
-15.702,-4.1835,68.449,171,175,181
-15.702,-3.819,68.148,177,155,149
-15.701,-4.1389,68.367,104,108,108
-15.701,-3.5254,68.062,116,117,111
-15.701,-3.9674,68.3,87,89,91
-15.701,-4.1207,68.386,148,150,148
-15.7,-3.7557,68.153,178,155,135
-15.7,-3.6001,68.107,208,199,171
-15.7,-4.0202,68.314,83,86,88
-15.7,-4.214,68.429,138,134,136
-15.7,-3.4339,68.075,132,129,111
-15.7,-3.3871,68.061,180,170,142
-15.7,-3.539,68.062,154,152,139
-15.7,-4.1537,68.356,89,93,93
-15.699,-3.4673,68.076,137,134,121
-15.699,-3.7358,68.171,247,238,226
-15.699,-4.2698,68.412,131,127,129
-15.699,-3.7671,68.15,188,167,143
-15.698,-4.3457,68.448,109,124,142
-15.698,-3.3466,67.992,168,147,113
-15.698,-3.8162,68.149,205,187,176
-15.697,-4.2421,68.389,195,197,192
-15.697,-3.3715,68.055,195,179,142
-15.696,-4.2229,68.396,162,163,159
-15.696,-4.1146,68.416,194,190,193
-15.696,-4.1903,68.437,153,157,163
-15.696,-4.143,68.39,187,185,183
-15.696,-4.1689,68.366,116,119,118
-15.695,-3.7547,68.143,181,157,138
-15.695,-4.1397,68.425,210,212,213
-15.695,-4.139,68.343,89,91,93
-15.695,-3.7313,68.166,242,231,213
-15.694,-3.7174,68.167,239,226,203
-15.694,-3.3207,67.986,115,103,68
-15.694,-4.1862,68.367,119,123,122
-15.694,-3.6277,68.139,221,208,179
-15.693,-4.1984,68.429,124,129,133
-15.693,-3.3855,68.056,197,183,149
-15.693,-3.7644,68.139,141,123,100
-15.692,-4.175,68.434,198,200,202
-15.692,-3.398,68.061,203,189,157
-15.692,-3.3222,67.943,206,186,145
-15.692,-3.3352,67.934,189,163,126
-15.692,-3.3753,67.974,116,101,75
-15.692,-4.1938,68.43,114,120,128
-15.692,-3.3711,68,140,124,90
-15.692,-4.0422,68.312,83,85,87
-15.691,-4.2025,68.407,201,199,200
-15.691,-4.2088,68.375,148,153,152
-15.691,-3.3365,68.064,156,135,106
-15.691,-3.6868,68.166,238,223,198
-15.691,-4.1667,68.349,84,87,89
-15.691,-3.2579,68.059,198,176,134
-15.69,-4.1931,68.423,145,150,154
-15.69,-3.8259,68.142,138,121,117
-15.69,-4.1783,68.4,154,155,154
-15.689,-3.7402,68.154,233,213,188
-15.689,-4.194,68.358,95,98,99
-15.689,-4.1809,68.351,88,90,91
-15.689,-4.1794,68.414,209,209,211
-15.689,-3.8048,68.144,201,184,174
-15.689,-3.7481,68.144,215,191,165
-15.689,-3.4193,68.065,210,198,167
-15.689,-3.6576,68.161,245,237,223
-15.688,-4.3004,68.402,121,126,128
-15.688,-4.017,68.301,83,85,86
-15.688,-3.3202,67.932,207,184,146
-15.688,-3.2957,68.055,215,193,146
-15.688,-4.1539,68.34,84,86,89
-15.688,-4.0753,68.32,82,84,86
-15.688,-3.9838,68.289,85,86,89
-15.688,-4.3478,68.432,92,112,141
-15.688,-4.1623,68.343,81,84,87
-15.688,-4.0854,68.323,84,87,88
-15.687,-3.9049,68.245,94,89,85
-15.687,-4.2394,68.37,175,174,175
-15.686,-4.2736,68.386,95,96,93
-15.686,-3.5269,68.061,186,179,159
-15.686,-3.3542,67.937,128,108,77
-15.685,-3.9594,68.28,87,89,90
-15.685,-3.3115,67.928,224,203,166
-15.685,-4.065,68.313,81,83,85
-15.685,-3.3124,67.961,130,114,74
-15.684,-3.462,68.067,211,197,165
-15.684,-4.2054,68.352,83,86,87
-15.684,-3.7547,68.136,189,165,142
-15.684,-3.776,68.131,192,186,159
-15.684,-3.5127,68.064,158,151,136
-15.684,-3.3234,68.056,215,193,148
-15.684,-3.3093,67.979,103,87,51
-15.683,-3.3109,67.935,206,189,149
-15.683,-4.1656,68.339,80,83,85
-15.683,-3.3396,67.926,189,164,128
-15.682,-3.613,68.099,172,161,141
-15.682,-3.7165,68.155,238,224,200
-15.682,-4.2,68.348,82,84,86
-15.681,-3.3167,67.926,220,198,161
-15.681,-3.3018,68.047,183,164,130
-15.681,-3.3157,68.007,70,55,32
-15.681,-4.1344,68.326,85,87,90
-15.681,-3.8442,68.146,92,84,83
-15.681,-4.2212,68.357,99,101,102
-15.681,-3.3546,68.049,168,146,112
-15.681,-3.595,68.083,200,191,171
-15.681,-3.4984,68.065,164,156,135
-15.68,-3.3836,68.034,180,160,124
-15.68,-3.7937,68.127,231,222,205
-15.679,-3.5413,68.057,211,202,179
-15.679,-3.8888,68.214,88,85,81
-15.678,-3.3464,68.021,144,124,93
-15.678,-4.2111,68.35,80,83,85
-15.678,-4.1577,68.33,81,84,87
-15.678,-4.1109,68.316,85,87,88
-15.678,-3.6289,68.081,210,203,183
-15.677,-4.0744,68.308,81,83,86
-15.677,-3.6235,68.089,153,146,130
-15.677,-3.6326,68.085,186,179,161
-15.677,-3.3102,68.029,115,101,74
-15.676,-3.8081,68.118,195,180,170
-15.676,-3.5728,68.064,218,209,185
-15.676,-3.6363,68.078,218,210,190
-15.676,-3.9676,68.272,89,91,92
-15.675,-3.6401,68.125,209,190,165
-15.675,-3.7974,68.118,226,214,201
-15.675,-3.9292,68.261,84,84,85
-15.675,-3.3076,67.942,143,130,87
-15.675,-3.9855,68.276,83,86,87
-15.675,-3.7265,68.145,238,224,200
-15.675,-3.3341,68.038,197,176,137
-15.675,-3.6313,68.105,157,147,128
-15.674,-3.7856,68.12,216,209,189
-15.674,-3.6379,68.098,155,146,130
-15.674,-3.6181,68.07,221,213,192
-15.674,-4.0519,68.294,83,85,86
-15.674,-3.6498,68.087,167,157,139
-15.673,-3.3436,67.92,143,121,89
-15.673,-3.6482,68.066,229,219,198
-15.673,-4.098,68.309,82,84,86
-15.673,-4.1731,68.331,82,84,87
-15.673,-3.49,68.058,214,203,174
-15.673,-4.2695,68.364,90,94,87
-15.673,-3.6372,68.114,186,172,148
-15.672,-3.3287,67.921,205,180,143
-15.672,-3.3819,67.946,140,133,112
-15.672,-4.3221,68.383,121,130,145
-15.672,-3.6743,68.08,198,189,170
-15.671,-3.6418,68.111,171,158,137
-15.671,-4.2466,68.355,86,86,88
-15.671,-4.2592,68.357,58,60,58
-15.671,-3.8115,68.101,121,105,102
-15.671,-3.3027,67.959,79,62,32
-15.67,-3.4041,67.984,149,133,101
-15.67,-3.6064,68.063,230,220,198
-15.67,-4.2929,68.369,131,135,133
-15.67,-3.839,68.118,101,102,100
-15.67,-3.6875,68.08,211,202,181
-15.67,-3.2671,68.032,169,149,118
-15.669,-4.1546,68.319,81,84,87
-15.669,-3.6848,68.07,225,215,193
-15.669,-4.2001,68.339,80,82,84
-15.669,-4.0683,68.295,84,86,88
-15.669,-4.008,68.276,83,85,87
-15.668,-4.0888,68.302,81,83,86
-15.668,-3.3128,67.929,216,198,161
-15.668,-4.1856,68.332,83,85,88
-15.668,-3.5107,68.051,220,209,181
-15.668,-3.7717,68.113,217,210,190
-15.668,-3.5257,67.947,202,190,154
-15.667,-4.037,68.282,83,85,86
-15.667,-3.2944,67.99,61,48,28
-15.667,-3.6711,68.104,173,163,145
-15.667,-3.6583,68.062,228,217,195
-15.667,-3.4234,68.036,189,174,145
-15.667,-3.2841,68.012,145,121,90
-15.667,-3.742,68.131,197,172,150
-15.666,-3.7877,68.084,175,160,138
-15.666,-3.7025,68.075,217,207,184
-15.666,-3.5459,68.05,221,209,185
-15.666,-3.4954,67.944,175,154,124
-15.665,-4.2341,68.349,89,90,92
-15.665,-4.1686,68.319,84,85,88
-15.665,-4.3555,68.404,69,98,139
-15.665,-3.5212,68.049,217,205,178
-15.665,-3.5853,68.055,223,213,187
-15.665,-3.3005,67.954,152,129,95
-15.664,-3.4013,67.959,136,129,110
-15.664,-3.6624,68.127,188,174,150
-15.664,-3.7228,68.133,235,221,198
-15.664,-3.6922,68.132,230,213,186
-15.663,-3.6996,68.105,175,166,150
-15.663,-4.1617,68.314,80,83,86
-15.663,-3.7527,68.123,170,148,125
-15.663,-3.8214,68.076,118,112,99
-15.663,-4.1271,68.304,82,84,86
-15.663,-4.1499,68.309,80,83,86
-15.662,-4.1065,68.299,81,82,85
-15.662,-4.0587,68.282,85,87,89
-15.662,-3.474,67.944,172,157,127
-15.662,-3.3683,67.919,145,139,113
-15.661,-3.8724,68.16,92,90,89
-15.661,-3.3953,67.939,188,184,172
-15.661,-4.2615,68.35,43,45,45
-15.66,-3.5239,67.975,150,139,112
-15.66,-3.3235,67.917,208,185,149
-15.66,-3.897,68.207,89,88,84
-15.66,-3.4814,67.97,177,159,129
-15.66,-3.5705,68.047,219,207,181
-15.66,-3.7179,68.12,173,165,147
-15.659,-3.5081,68.036,213,202,172
-15.659,-4.2372,68.344,81,83,85
-15.659,-3.351,67.906,113,98,68
-15.659,-3.7446,68.105,175,166,148
-15.659,-3.6379,68.052,226,216,196
-15.659,-3.339,67.906,170,146,111
-15.658,-4.1675,68.31,80,82,85
-15.658,-3.6973,68.055,226,214,192
-15.658,-3.608,68.047,232,222,202
-15.658,-3.7576,68.072,226,215,193
-15.658,-4.2488,68.345,67,67,69
-15.657,-3.9138,68.224,87,87,86
-15.657,-3.9023,68.211,89,88,85
-15.657,-4.1964,68.325,83,84,87
-15.657,-3.4943,68.035,217,206,178
-15.656,-3.4253,67.972,169,152,121
-15.656,-3.5375,67.938,194,180,141
-15.656,-3.2999,67.948,123,104,69
-15.656,-3.4337,67.928,175,165,154
-15.656,-3.5055,68.025,192,181,148
-15.655,-4.0549,68.275,85,87,89
-15.655,-3.7802,68.062,181,169,137
-15.655,-3.5166,68.022,210,198,167
-15.655,-3.414,67.935,206,200,191
-15.655,-3.9689,68.253,84,86,86
-15.655,-3.4423,68.019,154,138,112
-15.654,-3.7365,68.063,224,214,192
-15.654,-4.3172,68.36,100,117,142
-15.654,-3.5194,68,132,119,90
-15.654,-3.5536,67.946,229,212,174
-15.654,-4.2205,68.336,81,83,86
-15.653,-3.2912,67.969,158,139,97
-15.653,-4.1364,68.296,78,81,83
-15.653,-3.7608,68.061,209,195,172
-15.653,-3.4759,67.934,174,159,129
-15.653,-3.5047,68.013,149,137,107
-15.653,-3.5015,68.02,168,156,124
-15.653,-3.7964,68.06,196,182,154
-15.653,-4.157,68.299,78,80,82
-15.652,-4.3349,68.367,73,100,139
-15.652,-4.2986,68.352,140,144,135
-15.652,-3.47,68.035,205,192,162
-15.652,-4.2754,68.344,101,106,101
-15.652,-3.5829,68.036,217,205,177
-15.651,-3.4896,67.996,168,151,116
-15.651,-3.4518,68.032,196,182,151
-15.651,-3.3068,67.931,157,143,102
-15.651,-4.0809,68.279,81,83,86
-15.651,-3.5459,68.035,217,205,178
-15.651,-4.2522,68.339,77,80,81
-15.651,-3.5205,67.933,135,123,91
-15.651,-3.741,68.056,226,215,194
-15.65,-3.7464,68.055,224,213,193
-15.65,-4.1469,68.293,80,83,85
-15.65,-4.1081,68.287,80,83,86
-15.65,-3.7258,68.05,227,215,193
-15.649,-3.5354,68.014,157,146,118
-15.649,-3.7727,68.051,183,167,140
-15.649,-3.5656,67.979,175,163,131
-15.649,-3.8998,68.199,88,88,85
-15.649,-3.2688,68.002,212,186,147
-15.649,-3.3167,67.913,196,178,141
-15.649,-3.4915,68.021,144,133,105
-15.648,-3.6051,68.025,222,210,186
-15.648,-3.7399,68.051,226,215,194
-15.647,-3.5803,68,151,140,111
-15.646,-4.1875,68.307,83,86,89
-15.646,-3.8191,68.057,154,155,142
-15.646,-3.5657,67.999,133,123,95
-15.646,-3.8555,68.067,168,173,166
-15.645,-4.1675,68.295,78,81,83
-15.645,-3.5741,68.013,159,146,118
-15.644,-3.7521,68.045,215,202,180
-15.644,-3.4777,68.02,127,117,90
-15.644,-4.1502,68.287,82,84,87
-15.644,-4.1578,68.289,79,81,83
-15.643,-3.5889,67.992,174,160,131
-15.643,-3.404,67.917,194,190,175
-15.643,-3.5344,67.93,171,157,120
-15.643,-4.037,68.258,84,86,87
-15.642,-3.9886,68.243,83,85,87
-15.642,-3.7785,68.042,187,171,144
-15.641,-3.9302,68.223,85,86,86
-15.641,-3.481,67.928,181,164,131
-15.641,-3.7005,68.035,223,210,186
-15.641,-3.5622,68.026,214,202,174
-15.641,-3.5605,67.936,219,200,162
-15.64,-4.1071,68.278,77,80,83
-15.64,-4.0549,68.26,84,86,87
-15.64,-4.2286,68.322,74,79,81
-15.639,-3.3097,67.907,114,99,62
-15.639,-4.0208,68.25,84,85,87
-15.639,-3.495,67.931,179,158,128
-15.639,-4.3161,68.347,107,121,140
-15.639,-3.3575,67.886,133,120,87
-15.638,-3.7204,68.032,225,213,191
-15.638,-3.3279,67.885,138,116,82
-15.638,-3.5112,67.925,158,142,114
-15.637,-4.3066,68.343,121,127,134
-15.637,-3.6726,68.037,229,216,194
-15.637,-3.3461,67.878,134,115,82
-15.637,-4.3423,68.355,62,96,141
-15.636,-3.578,67.95,221,201,165
-15.636,-4.13,68.278,74,77,79
-15.636,-4.1571,68.283,83,85,87
-15.635,-4.2836,68.331,104,109,109
-15.634,-4.3124,68.343,122,131,142
-15.634,-3.4907,67.922,192,173,141
-15.634,-3.2882,67.951,67,54,31
-15.633,-4.3359,68.349,69,99,140
-15.633,-3.3155,67.889,220,200,161
-15.633,-4.0937,68.268,81,83,86
-15.633,-4.0425,68.25,81,83,84
-15.633,-4.0308,68.246,82,84,85
-15.632,-3.6069,67.985,200,184,154
-15.632,-3.7171,68.022,220,204,177
-15.632,-3.5004,67.91,165,147,120
-15.631,-3.7946,68.033,177,164,144
-15.631,-3.8177,68.039,159,160,148
-15.631,-3.4821,67.907,214,194,164
-15.63,-4.3265,68.343,83,106,138
-15.63,-3.2937,67.931,108,87,58
-15.63,-3.4604,67.912,181,168,142
-15.63,-3.5399,67.925,185,170,132
-15.63,-4.1729,68.283,84,86,88
-15.63,-3.5255,67.917,147,133,102
-15.629,-3.6596,68.023,182,163,131
-15.629,-3.4793,67.901,208,187,160
-15.629,-4.311,68.335,109,119,133
-15.629,-3.6844,68.023,225,210,181
-15.629,-3.3498,67.87,128,112,79
-15.629,-4.2104,68.298,86,88,91
-15.629,-3.9717,68.22,82,84,85
-15.628,-4.1484,68.275,80,82,84
-15.628,-3.7419,68.025,213,194,166
-15.628,-3.7083,68.012,223,206,173
-15.628,-3.7714,68.029,170,155,125
-15.627,-3.6267,67.995,197,182,155
-15.627,-3.7018,68.013,223,206,172
-15.627,-3.4695,67.904,208,191,157
-15.626,-4.236,68.305,74,78,81
-15.626,-4.1877,68.287,84,86,89
-15.626,-3.4954,67.89,156,139,111
-15.626,-4.0739,68.254,81,83,84
-15.626,-3.3764,67.892,130,115,82
-15.625,-3.4434,67.914,190,181,167
-15.625,-3.8944,68.112,130,130,131
-15.625,-4.2598,68.311,85,90,91
-15.624,-3.5661,67.931,208,189,151
-15.624,-4.0182,68.233,85,86,87
-15.624,-3.3145,67.88,210,190,150
-15.624,-4.1348,68.267,75,77,80
-15.623,-3.9068,68.181,97,98,98
-15.623,-3.3406,67.864,148,125,92
-15.623,-3.2724,67.964,136,112,83
-15.623,-3.9823,68.217,80,82,83
-15.623,-3.7078,68.006,210,190,158
-15.623,-3.9613,68.21,84,85,86
-15.622,-4.0934,68.257,74,76,79
-15.622,-3.4787,67.891,216,199,169
-15.621,-4.337,68.338,71,99,139
-15.62,-4.2217,68.292,81,84,88
-15.62,-3.6535,68,196,177,146
-15.619,-4.0408,68.236,81,83,83
-15.619,-3.7475,68.019,191,169,134
-15.619,-4.3525,68.344,56,92,141
-15.619,-3.9504,68.203,85,86,87
-15.618,-3.8592,68.028,173,169,172
-15.617,-3.2568,67.965,228,207,161
-15.617,-3.5075,67.878,160,147,115
-15.617,-3.3196,67.87,194,170,130
-15.616,-3.6803,67.998,216,196,164
-15.616,-3.5509,67.924,218,201,162
-15.616,-3.3312,67.86,185,157,121
-15.615,-4.1622,68.267,84,86,88
-15.615,-3.9979,68.215,81,83,84
-15.615,-3.7176,68.001,220,194,160
-15.615,-3.5413,67.915,212,200,161
-15.615,-3.8288,68.024,148,152,143
-15.615,-3.5292,67.899,185,174,139
-15.615,-3.466,67.9,210,196,167
-15.614,-3.8843,68.05,138,135,136
-15.613,-4.1953,68.277,84,86,89
-15.613,-4.0639,68.238,84,86,86
-15.612,-3.4208,67.915,172,163,144
-15.612,-4.0267,68.223,83,85,85
-15.612,-4.3125,68.319,100,115,134
-15.611,-3.5987,67.94,230,211,178
-15.611,-3.4822,67.862,179,162,134
-15.611,-4.0875,68.242,84,85,86
-15.61,-3.7033,67.983,228,206,174
-15.61,-4.2493,68.286,79,83,86
-15.61,-4.2093,68.279,84,87,90
-15.61,-4.2697,68.298,99,106,110
-15.61,-4.3762,68.353,55,92,140
-15.609,-3.7416,68.01,168,138,101
-15.609,-3.2972,67.887,88,71,41
-15.609,-4.2232,68.28,77,80,84
-15.609,-3.6901,67.969,240,220,186
-15.608,-3.9408,68.187,86,87,88
-15.608,-3.9185,68.152,92,92,93
-15.608,-3.5532,67.922,228,209,173
-15.608,-3.6694,67.968,232,214,181
-15.608,-3.9727,68.196,82,84,84
-15.608,-3.3035,67.874,205,185,144
-15.608,-4.1245,68.244,71,74,77
-15.607,-3.3372,67.846,166,140,104
-15.606,-3.8072,68.009,139,137,124
-15.606,-4.0735,68.233,83,85,86
-15.606,-3.4572,67.91,191,176,147
-15.605,-3.9577,68.187,83,85,86
-15.605,-4.0389,68.22,82,84,84
-15.605,-4.1811,68.264,81,84,86
-15.604,-4.0281,68.215,84,86,86
-15.604,-3.4407,67.918,161,153,133
-15.604,-3.4691,67.888,215,200,168
-15.603,-4.1493,68.248,82,84,86
-15.603,-4.1348,68.241,81,83,84
-15.602,-3.6934,67.953,238,213,176
-15.602,-3.5549,67.914,239,223,190
-15.602,-3.7601,68.01,159,146,115
-15.602,-4.2425,68.275,74,78,81
-15.602,-3.3565,67.851,124,107,74
-15.601,-4.0558,68.221,82,84,84
-15.601,-3.5064,67.87,171,155,128
-15.601,-3.9319,68.169,86,87,87
-15.601,-3.8584,68.024,157,160,154
-15.601,-3.9378,68.176,86,87,87
-15.601,-3.3023,67.843,198,173,134
-15.601,-4.3418,68.323,68,98,140
-15.6,-3.9302,68.118,106,105,106
-15.6,-3.9277,68.159,87,87,88
-15.6,-3.9293,68.14,70,70,71
-15.6,-3.7215,67.982,210,179,143
-15.599,-3.9153,68.083,109,108,106
-15.599,-4.032,68.211,83,85,85
-15.599,-3.7364,67.996,181,147,109
-15.599,-3.6763,67.94,235,214,180
-15.599,-3.9414,68.17,87,88,88
-15.599,-3.7505,68.005,151,120,78
-15.599,-4.123,68.233,81,83,85
-15.598,-3.9897,68.192,82,85,85
-15.598,-3.9337,68.156,80,80,81
-15.598,-3.7099,67.966,226,197,160
-15.598,-3.944,68.118,114,116,115
-15.597,-3.9476,68.131,85,87,88
-15.597,-3.935,68.165,87,88,88
-15.597,-3.5854,67.919,217,197,161
-15.597,-4.2095,68.265,83,86,88
-15.597,-3.4711,67.871,225,208,178
-15.596,-3.4751,67.863,229,211,185
-15.596,-4.0207,68.203,85,87,88
-15.595,-3.435,67.918,147,131,109
-15.595,-3.2938,67.862,110,92,58
-15.594,-3.9716,68.166,84,86,87
-15.594,-3.3139,67.821,191,165,126
-15.594,-3.4886,67.866,201,183,158
-15.594,-3.7797,67.999,182,163,121
-15.594,-3.3328,67.826,145,123,89
-15.594,-4.0802,68.22,84,86,87
-15.594,-3.6385,67.931,240,223,191
-15.593,-4.2716,68.28,105,113,118
-15.593,-4.0918,68.222,86,88,89
-15.592,-4.0411,68.204,83,86,86
-15.591,-3.3014,67.826,205,182,143
-15.591,-3.9648,68.119,129,131,130
-15.591,-3.6943,67.939,199,166,129
-15.59,-3.7581,67.999,160,135,90
-15.59,-4.231,68.261,78,81,84
-15.59,-3.3872,67.875,156,142,108
-15.589,-4.0782,68.213,82,84,85
-15.589,-3.4217,67.909,158,145,114
-15.588,-3.7446,67.989,169,135,96
-15.588,-3.5459,67.892,243,229,197
-15.588,-3.453,67.92,150,133,110
-15.587,-4.058,68.202,81,84,85
-15.587,-4.1527,68.233,83,85,86
-15.586,-4.1216,68.221,81,83,84
-15.586,-4.2496,68.261,78,81,84
-15.586,-3.2878,67.869,137,115,80
-15.586,-3.9143,68.061,102,103,101
-15.584,-3.9433,68.094,131,133,130
-15.584,-3.2664,67.937,98,83,48
-15.583,-3.4683,67.894,222,206,174
-15.583,-4.2196,68.253,83,84,86
-15.583,-3.7307,67.97,158,126,86
-15.583,-4.2427,68.256,79,82,84
-15.583,-3.2896,67.857,116,95,65
-15.582,-4.1881,68.243,80,83,84
-15.582,-4.0928,68.208,85,87,88
-15.582,-4.0013,68.164,86,88,89
-15.582,-3.9913,68.128,120,122,123
-15.582,-3.8321,68.011,100,97,92
-15.581,-4.0117,68.182,86,90,90
-15.581,-3.3455,67.818,131,120,88
-15.581,-4.1759,68.237,80,83,84
-15.58,-4.1403,68.221,83,85,85
-15.58,-4.0044,68.145,100,101,102
-15.579,-4.0667,68.189,79,82,84
-15.578,-4.1845,68.238,80,82,84
-15.578,-3.9632,68.104,131,134,131
-15.578,-3.4859,67.881,226,210,181
-15.577,-3.2773,67.899,102,84,46
-15.576,-4.0863,68.188,82,85,86
-15.576,-4.0094,68.134,123,124,123
-15.576,-3.5191,67.883,187,173,144
-15.576,-3.4522,67.914,203,185,155
-15.576,-4.0307,68.175,89,89,90
-15.576,-3.3024,67.814,199,176,136
-15.575,-3.2925,67.834,88,71,42
-15.575,-3.6046,67.91,243,228,198
-15.575,-4.1171,68.207,83,85,86
-15.575,-4.1913,68.236,81,83,85
-15.575,-4.1985,68.238,82,83,85
-15.575,-4.0696,68.16,77,80,82
-15.574,-4.3327,68.295,83,105,134
-15.574,-3.6824,67.921,241,223,191
-15.574,-3.6959,67.93,239,214,180
-15.573,-4.2793,68.268,112,117,119
-15.573,-4.13,68.205,79,82,85
-15.573,-4.218,68.241,84,86,87
-15.573,-4.092,68.172,78,80,83
-15.573,-4.0824,68.161,76,79,82
-15.572,-4.0054,68.124,130,132,130
-15.571,-3.7184,67.947,163,130,92
-15.571,-4.2499,68.248,96,99,97
-15.571,-3.8973,68.044,98,100,96
-15.57,-4.0218,68.131,125,127,126
-15.57,-3.3803,67.84,171,158,128
-15.569,-4.1191,68.185,78,80,82
-15.568,-4.1808,68.221,85,87,89
-15.568,-4.0669,68.143,113,116,117
-15.568,-3.9608,68.092,130,132,130
-15.568,-4.2033,68.23,85,87,89
-15.567,-4.1514,68.202,82,85,87
-15.567,-3.754,67.965,209,186,145
-15.567,-3.3495,67.808,130,118,86
-15.567,-4.1369,68.192,81,83,85
-15.567,-3.6355,67.91,244,229,199
-15.567,-3.2592,67.914,123,97,72
-15.566,-4.1429,68.195,82,84,86
-15.566,-4.1263,68.176,79,81,83
-15.566,-4.1471,68.197,83,85,87
-15.565,-3.9948,68.113,128,130,129
-15.565,-4.2846,68.267,118,121,120
-15.565,-3.2858,67.855,91,74,45
-15.565,-3.3323,67.8,197,173,133
-15.565,-4.1464,68.192,83,85,88
-15.564,-4.1126,68.16,78,80,83
-15.564,-3.5758,67.902,243,229,199
-15.564,-4.0889,68.145,107,110,112
-15.563,-3.7892,67.966,130,104,83
-15.563,-4.1494,68.184,82,84,87
-15.563,-4.0243,68.122,131,134,132
-15.562,-4.2228,68.231,82,84,86
-15.562,-4.0524,68.131,129,132,132
-15.561,-3.9592,68.081,129,131,130
-15.561,-4.3279,68.297,109,116,126
-15.561,-4.3239,68.293,108,113,121
-15.56,-4.1834,68.198,84,87,89
-15.56,-4.3073,68.281,103,108,110
-15.56,-3.682,67.915,242,224,194
-15.56,-3.9809,68.098,129,131,130
-15.559,-4.1406,68.162,79,82,86
-15.559,-4.3236,68.293,110,115,121
-15.559,-4.0032,68.11,128,130,129
-15.558,-4.3117,68.288,100,103,101
-15.558,-4.27,68.25,98,101,100
-15.557,-4.2125,68.218,82,84,87
-15.557,-3.2918,67.811,126,111,77
-15.557,-3.9476,68.067,122,125,123
-15.557,-4.317,68.289,109,112,112
-15.556,-3.374,67.815,149,140,111
-15.556,-3.2604,67.902,222,194,156
-15.556,-4.2047,68.204,82,86,88
-15.556,-3.3004,67.798,200,185,147
-15.555,-4.1666,68.162,80,83,87
-15.555,-4.3132,68.286,102,106,104
-15.555,-4.0754,68.131,126,129,129
-15.554,-3.6994,67.921,240,217,184
-15.553,-3.4406,67.912,193,178,143
-15.553,-4.202,68.186,82,86,88
-15.553,-4.2612,68.241,87,91,90
-15.552,-3.473,67.911,228,212,177
-15.552,-3.2849,67.819,110,87,58
-15.552,-4.3362,68.286,92,108,129
-15.551,-4.2535,68.234,86,89,88
-15.551,-4.3286,68.287,104,114,127
-15.551,-4.1323,68.147,97,100,104
-15.55,-4.1999,68.17,83,88,90
-15.55,-4.4505,68.34,66,96,133
-15.55,-3.3061,67.785,235,221,185
-15.549,-3.2713,67.874,44,34,19
-15.548,-4.2643,68.238,95,99,96
-15.548,-4.3231,68.281,105,113,120
-15.548,-3.3635,67.798,189,185,172
-15.547,-3.9724,68.073,128,131,130
-15.547,-3.8694,68.031,75,71,65
-15.547,-3.4091,67.811,195,190,178
-15.547,-4.3159,68.271,103,115,128
-15.547,-3.437,67.806,184,175,165
-15.547,-3.2784,67.833,159,140,99
-15.547,-4.1556,68.147,109,111,114
-15.547,-3.4098,67.832,184,174,153
-15.546,-4.2314,68.216,81,83,85
-15.546,-3.426,67.797,193,183,173
-15.546,-3.7345,67.943,147,116,77
-15.546,-4.2945,68.25,98,101,97
-15.545,-3.2586,67.89,179,152,117
-15.545,-4.1716,68.148,90,92,96
-15.544,-3.2934,67.786,187,176,137
-15.544,-4.2195,68.181,91,95,97
-15.544,-3.9525,68.064,124,126,125
-15.543,-3.906,68.05,84,86,80
-15.543,-3.4074,67.799,214,209,200
-15.543,-4.0241,68.095,129,133,132
-15.542,-3.2877,67.801,73,58,35
-15.542,-4.0746,68.117,130,132,132
-15.542,-3.6953,67.912,242,222,190
-15.542,-3.2924,67.778,219,208,170
-15.542,-3.8235,67.981,119,98,80
-15.542,-3.5102,67.903,222,206,177
-15.541,-3.9669,68.067,126,128,127
-15.541,-4.2007,68.152,109,113,116
-15.541,-4.0544,68.105,131,134,133
-15.54,-3.2741,67.846,71,56,28
-15.54,-3.3961,67.798,217,212,204
-15.539,-4.2669,68.227,103,105,101
-15.539,-3.6533,67.903,243,227,197
-15.539,-3.7824,67.933,197,177,134
-15.538,-3.4096,67.794,221,215,207
-15.538,-3.3123,67.768,240,227,191
-15.537,-3.2529,67.887,231,204,160
-15.537,-3.4429,67.79,165,153,136
-15.537,-4.2382,68.19,99,101,101
-15.537,-3.349,67.775,132,122,94
-15.537,-3.4505,67.808,173,162,148
-15.537,-3.2785,67.822,125,107,74
-15.537,-3.9914,68.07,128,131,129
-15.537,-3.7537,67.947,149,122,79
-15.536,-4.2508,68.212,83,86,88
-15.536,-3.4444,67.83,199,188,174
-15.536,-3.2511,67.887,234,209,164
-15.535,-3.4567,67.915,179,166,128
-15.535,-3.4314,67.884,159,144,111
-15.534,-4.1374,68.134,128,132,132
-15.534,-4.4406,68.308,51,90,140
-15.534,-3.3604,67.781,181,176,157
-15.534,-4.1855,68.142,129,132,133
-15.534,-4.2808,68.225,99,100,96
-15.534,-3.291,67.779,153,140,103
-15.533,-3.9439,68.062,96,96,94
-15.533,-3.3354,67.763,124,107,76
-15.533,-3.2617,67.87,71,56,36
-15.532,-3.7805,67.924,196,171,132
-15.532,-3.3778,67.789,214,208,198
-15.532,-4.2339,68.164,126,129,128
-15.531,-4.0992,68.115,129,132,133
-15.531,-3.7478,67.941,191,155,126
-15.531,-4.0874,68.109,131,134,134
-15.53,-3.2518,67.877,214,186,145
-15.53,-4.0066,68.068,120,122,120
-15.529,-4.0294,68.076,128,132,131
-15.529,-4.257,68.196,110,111,109
-15.529,-3.2939,67.772,195,178,140
-15.529,-4.1743,68.135,133,135,135
-15.529,-3.7095,67.913,240,214,180
-15.529,-3.2769,67.82,60,49,28
-15.529,-4.1819,68.136,134,136,137
-15.529,-3.3296,67.754,127,113,82
-15.528,-3.7989,67.937,142,115,91
-15.528,-3.9832,68.067,118,119,117
-15.528,-3.3479,67.765,146,135,108
-15.527,-3.2693,67.844,116,99,55
-15.527,-4.2091,68.142,130,133,132
-15.526,-4.0727,68.093,133,137,136
-15.526,-3.6767,67.897,244,229,199
-15.525,-4.349,68.261,91,108,129
-15.525,-3.6095,67.909,238,224,193
-15.525,-3.4413,67.86,182,167,139
-15.525,-4.2975,68.214,119,121,116
-15.524,-3.2593,67.862,102,79,56
-15.524,-3.4662,67.794,146,136,104
-15.524,-4.0545,68.077,130,134,134
-15.524,-3.2842,67.785,104,84,56
-15.524,-4.2752,68.206,113,115,108
-15.523,-3.4814,67.777,141,129,98
-15.523,-3.7647,67.929,197,175,133
-15.523,-4.0849,68.097,132,136,136
-15.523,-3.4753,67.771,152,138,104
-15.523,-4.284,68.208,113,115,109
-15.523,-3.2542,67.867,142,113,85
-15.522,-4.1866,68.132,131,133,133
-15.522,-3.4907,67.763,161,146,119
-15.521,-4.0182,68.068,123,126,125
-15.521,-3.5491,67.91,193,178,148
-15.521,-4.1178,68.108,129,133,133
-15.521,-3.7817,67.911,174,147,113
-15.521,-4.2659,68.176,121,120,112
-15.52,-4.2847,68.2,118,120,113
-15.52,-3.5013,67.916,235,218,185
-15.52,-4.1335,68.117,127,131,132
-15.519,-4.0406,68.071,123,128,126
-15.519,-4.2832,68.19,126,126,114
-15.519,-4.0996,68.096,130,134,134
-15.519,-3.7745,67.912,191,166,128
-15.518,-3.4958,67.769,157,143,117
-15.518,-3.4927,67.776,154,140,114
-15.518,-4.0732,68.082,132,136,135
-15.518,-3.903,68.048,70,70,66
-15.518,-3.4708,67.76,169,154,121
-15.517,-4.3911,68.269,68,93,125
-15.516,-4.1515,68.119,128,131,131
-15.515,-3.3692,67.768,169,158,136
-15.515,-3.998,68.07,106,105,105
-15.515,-3.4396,67.77,176,165,125
-15.515,-4.089,68.087,132,136,137
-15.514,-3.4463,67.893,147,132,100
-15.514,-3.2635,67.842,57,43,24
-15.514,-3.2503,67.856,179,151,117
-15.514,-3.9796,68.07,93,92,90
-15.514,-3.4909,67.793,143,132,98
-15.514,-3.8631,68.01,90,78,70
-15.514,-4.2069,68.13,130,133,132
-15.514,-4.4276,68.278,64,92,129
-15.513,-3.778,67.902,173,147,110
-15.512,-3.7698,67.915,201,179,137
-15.512,-3.3945,67.784,203,197,183
-15.512,-3.4994,67.766,152,138,109
-15.512,-3.3343,67.742,128,110,80
-15.512,-3.7241,67.909,225,192,161
-15.512,-3.7606,67.92,149,130,84
-15.511,-3.948,68.067,75,75,72
-15.511,-3.4488,67.888,149,134,100
-15.511,-3.4855,67.753,173,157,131
-15.51,-4.1729,68.118,124,128,128
-15.51,-4.1303,68.105,128,133,133
-15.509,-3.4609,67.748,207,190,161
-15.509,-3.456,67.896,170,155,121
-15.509,-3.4539,67.879,169,155,120
-15.508,-3.2865,67.756,214,192,155
-15.508,-3.2549,67.847,180,149,113
-15.508,-3.4629,67.873,178,164,137
-15.507,-4.1472,68.11,128,132,133
-15.507,-3.4811,67.916,218,203,166
-15.507,-3.6918,67.889,245,229,200
-15.507,-3.7723,67.903,190,166,126
-15.507,-3.2694,67.809,76,58,34
-15.506,-4.2946,68.171,139,132,114
-15.506,-4.0027,68.072,90,89,88
-15.506,-4.2687,68.154,123,120,115
-15.505,-4.0651,68.075,131,135,133
-15.505,-3.4472,67.748,218,205,170
-15.505,-4.0401,68.074,101,104,100
-15.505,-3.6468,67.888,244,229,200
-15.504,-3.5768,67.913,177,166,150
-15.504,-3.4145,67.78,156,149,128
-15.504,-3.4567,67.886,154,142,107
-15.504,-4.244,68.139,132,134,132
-15.503,-3.7848,67.893,163,136,107
-15.503,-3.3102,67.725,170,144,110
-15.502,-4.3348,68.207,94,106,122
-15.502,-3.4936,67.836,141,135,104
-15.501,-4.1643,68.11,127,130,130
-15.501,-3.7756,67.892,174,148,111
-15.501,-3.2564,67.832,164,135,101
-15.501,-4.148,68.104,128,132,133
-15.501,-3.5065,67.915,227,212,181
-15.501,-3.828,67.949,106,86,71
-15.5,-3.6601,67.882,244,230,201
-15.5,-4.1091,68.079,121,123,120
-15.5,-4.0166,68.074,82,84,79
-15.5,-3.5125,67.79,165,152,123
-15.498,-3.4594,67.737,209,191,165
-15.498,-3.9198,68.06,65,65,63
-15.498,-3.7576,67.91,129,108,63
-15.497,-3.7639,67.906,175,158,110
-15.497,-3.4354,67.745,185,175,131
-15.497,-3.7449,67.908,120,88,55
-15.497,-4.1787,68.109,129,132,132
-15.494,-3.4909,67.738,135,121,96
-15.493,-4.4635,68.274,80,104,134
-15.493,-3.5105,67.763,154,141,111
-15.492,-3.7753,67.881,186,159,122
-15.492,-3.8066,67.91,152,124,99
-15.491,-3.9862,68.074,71,72,70
-15.491,-4.1318,68.096,122,127,126
-15.491,-4.2785,68.141,89,81,75
-15.491,-3.6111,67.902,189,180,155
-15.49,-3.6916,67.877,242,224,193
-15.49,-3.5275,67.913,197,185,166
-15.49,-3.7889,67.882,138,114,89
-15.49,-4.2672,68.138,128,121,120
-15.489,-3.5002,67.746,137,125,97
-15.489,-3.6409,67.879,243,229,199
-15.489,-3.2832,67.732,187,171,133
-15.489,-3.7535,67.901,115,92,49
-15.488,-4.0322,68.08,74,75,71
-15.488,-4.3079,68.147,98,91,78
-15.488,-3.4038,67.765,188,175,148
-15.487,-3.5006,67.897,144,137,121
-15.487,-3.7431,67.898,124,98,58
-15.487,-3.966,68.071,64,65,63
-15.486,-3.9515,68.067,63,64,63
-15.485,-3.3373,67.716,134,119,91
-15.484,-3.6649,67.868,244,229,200
-15.483,-4.2083,68.108,130,132,133
-15.483,-3.758,67.885,149,133,84
-15.483,-3.7165,67.881,236,212,178
-15.483,-3.4864,67.742,166,150,125
-15.481,-4.3742,68.218,124,123,121
-15.481,-3.5133,67.756,132,120,91
-15.481,-3.631,67.877,211,203,171
-15.481,-3.4587,67.738,226,209,178
-15.479,-3.3026,67.701,201,182,145
-15.479,-3.5194,67.892,125,128,120
-15.478,-3.5472,67.911,141,139,136
-15.478,-3.6064,67.897,104,107,100
-15.478,-3.7217,67.878,236,209,175
-15.478,-3.2586,67.789,152,126,94
-15.477,-3.7468,67.879,139,115,75
-15.477,-3.9358,68.055,62,64,64
-15.476,-3.9074,68.035,71,68,64
-15.476,-3.7717,67.861,196,174,132
-15.476,-3.5677,67.908,126,128,124
-15.476,-3.7223,67.877,236,209,174
-15.475,-4.4009,68.233,156,147,129
-15.475,-3.6197,67.879,117,119,100
-15.475,-3.5835,67.904,103,112,111
-15.475,-3.7298,67.877,204,173,140
-15.475,-4.1062,68.091,123,126,123
-15.474,-4.2857,68.122,102,93,79
-15.474,-3.2847,67.713,176,161,125
-15.474,-3.9728,68.068,63,64,64
-15.474,-3.4352,67.754,227,213,181
-15.473,-4.4269,68.241,132,129,120
-15.473,-4.235,68.103,128,121,118
-15.472,-3.6036,67.887,84,91,86
-15.472,-4.0254,68.085,67,68,66
-15.472,-4.4522,68.247,101,101,99
-15.472,-3.782,67.861,169,143,109
-15.471,-4.1688,68.105,120,123,122
-15.471,-3.5412,67.867,135,134,110
-15.47,-3.7217,67.87,231,203,169
-15.469,-3.9832,68.068,64,66,67
-15.469,-4.3209,68.133,56,46,33
-15.469,-4.3008,68.118,112,100,85
-15.469,-3.552,67.832,190,179,147
-15.468,-3.5886,67.883,85,87,80
-15.467,-3.6431,67.857,244,229,201
-15.467,-3.581,67.887,94,98,91
-15.467,-3.3088,67.685,150,124,90
-15.466,-3.8939,68.009,79,72,68
-15.464,-4.0071,68.078,66,68,68
-15.464,-3.7619,67.856,199,177,135
-15.464,-3.6927,67.85,244,225,194
-15.463,-3.7321,67.866,140,109,75
-15.463,-4.3627,68.175,151,140,111
-15.463,-3.2673,67.739,108,92,59
-15.462,-3.2853,67.7,181,165,126
-15.462,-3.5579,67.891,101,109,103
-15.462,-3.9718,68.057,64,66,66
-15.462,-3.2746,67.718,92,80,52
-15.461,-3.5735,67.866,89,91,83
-15.46,-4.4708,68.242,129,126,119
-15.46,-3.2557,67.767,171,146,106
-15.46,-4.3195,68.121,56,45,32
-15.46,-3.5956,67.865,212,202,173
-15.46,-3.3207,67.676,119,101,69
-15.459,-3.2981,67.686,210,188,148
-15.458,-4.0789,68.095,68,69,66
-15.458,-3.9132,68.02,67,66,66
-15.458,-4.0273,68.086,70,72,72
-15.457,-3.47,67.757,213,195,167
-15.457,-4.2981,68.106,89,76,63
-15.457,-4.0495,68.093,75,76,75
-15.457,-3.5615,67.801,220,208,176
-15.456,-3.7759,67.842,172,146,111
-15.456,-3.874,67.971,70,67,65
-15.456,-3.5234,67.769,170,157,128
-15.456,-3.3047,67.677,192,164,127
-15.455,-3.3474,67.698,127,115,90
-15.454,-3.7711,67.835,181,158,119
-15.454,-3.6709,67.839,244,230,201
-15.453,-4.4321,68.226,180,164,134
-15.453,-3.7211,67.852,232,203,170
-15.453,-4.1242,68.102,86,88,85
-15.453,-3.5802,67.827,236,223,191
-15.452,-3.5867,67.843,244,230,200
-15.451,-4.4156,68.213,179,162,132
-15.45,-3.9085,68.008,66,65,64
-15.45,-3.7042,67.842,242,222,191
-15.45,-3.9937,68.058,67,69,68
-15.45,-4.4756,68.235,147,132,108
-15.448,-3.9729,68.042,66,67,67
-15.448,-4.339,68.137,73,64,48
-15.448,-4.4693,68.229,159,143,117
-15.448,-4.0928,68.1,69,70,68
-15.447,-3.5905,67.833,243,229,199
-15.447,-3.6869,67.835,244,229,199
-15.447,-3.7173,67.844,240,214,180
-15.447,-4.0718,68.096,71,72,71
-15.447,-3.5942,67.836,243,230,200
-15.446,-3.5905,67.83,244,229,198
-15.446,-4.4578,68.225,174,158,130
-15.446,-3.5914,67.827,243,229,199
-15.446,-4.3141,68.115,98,90,79
-15.445,-4.2695,68.097,80,83,87
-15.445,-4.1074,68.103,72,73,70
-15.445,-3.7418,67.845,117,89,55
-15.445,-3.6194,67.842,244,230,202
-15.445,-3.261,67.735,84,67,42
-15.443,-3.7678,67.823,172,154,109
-15.443,-4.1119,68.103,73,74,71
-15.442,-4.0884,68.101,71,72,71
-15.441,-4.4481,68.217,174,157,128
-15.441,-4.2279,68.101,79,100,128
-15.441,-4.0213,68.068,71,73,71
-15.441,-3.9221,68.003,64,66,67
-15.44,-3.8042,67.858,138,115,91
-15.44,-4.0461,68.082,74,76,74
-15.44,-3.7808,67.828,169,142,111
-15.439,-4.1807,68.11,109,110,106
-15.439,-3.9605,68.023,64,66,66
-15.438,-3.5966,67.816,243,229,198
-15.437,-4.4737,68.219,170,152,124
-15.437,-4.3712,68.159,134,126,100
-15.437,-4.4426,68.207,165,148,120
-15.436,-4.4604,68.213,167,150,122
-15.436,-3.9768,68.03,66,68,68
-15.436,-3.436,67.77,222,206,174
-15.436,-3.324,67.664,143,118,85
-15.436,-4.0998,68.1,75,76,75
-15.436,-4.4109,68.185,173,158,128
-15.435,-3.2626,67.699,54,44,24
-15.435,-4.4636,68.204,133,130,122
-15.435,-4.4673,68.212,165,147,121
-15.435,-3.2517,67.741,129,104,76
-15.434,-4.4591,68.21,160,143,116
-15.434,-3.909,67.987,69,70,72
-15.434,-4.0718,68.091,73,74,74
-15.434,-3.6526,67.822,242,227,196
-15.433,-4.142,68.108,94,96,93
-15.433,-4.0585,68.083,75,76,75
-15.432,-3.9963,68.04,67,69,68
-15.432,-3.5698,67.792,223,211,179
-15.432,-3.7742,67.817,178,151,117
-15.432,-4.4658,68.205,162,145,119
-15.432,-4.2949,68.108,91,100,108
-15.432,-4.4376,68.198,173,157,127
-15.432,-3.3883,67.729,160,146,126
-15.431,-3.2783,67.669,181,166,126
-15.431,-4.4518,68.2,164,147,120
-15.431,-3.612,67.818,244,228,197
-15.429,-4.0411,68.07,74,76,76
-15.429,-3.7215,67.829,153,123,90
-15.429,-4.1225,68.101,80,81,79
-15.429,-3.5904,67.803,243,229,198
-15.428,-3.3114,67.639,143,121,89
-15.428,-3.3025,67.653,203,179,139
-15.428,-3.9399,67.998,64,65,66
-15.428,-4.4695,68.197,162,147,124
-15.427,-4.0996,68.098,79,81,79
-15.427,-4.0887,68.093,77,79,77
-15.426,-4.4486,68.187,174,157,127
-15.426,-4.1622,68.115,92,93,90
-15.426,-4.0585,68.076,74,75,75
-15.425,-4.4445,68.18,174,158,128
-15.423,-4.4325,68.175,173,157,128
-15.423,-4.0108,68.041,68,70,70
-15.423,-3.9866,68.021,64,66,66
-15.422,-3.2873,67.627,200,187,147
-15.422,-3.3287,67.644,135,124,93
